ncols 238
nrows 46
xllcorner -71
yllcorner 4634
cellsize 30.000
NODATA_value -9999
1044.000 1031.000 1016.000 1002.000 990.000 978.000 969.000 959.000 949.000 938.000 927.000 921.000 -9999.000 913.000 905.000 895.000 887.000 883.000 878.000 -9999.000 881.000 886.000 893.000 900.000 909.000 914.000 917.000 918.000 921.000 924.000 928.000 931.000 934.000 936.000 939.000 941.000 945.000 -9999.000 951.000 953.000 954.000 955.000 957.000 960.000 964.000 -9999.000 972.000 -9999.000 980.000 981.000 985.000 991.000 997.000 999.000 1000.000 1004.000 1011.000 1018.000 -9999.000 1028.000 1032.000 1037.000 1040.000 -9999.000 1042.000 1044.000 1048.000 1050.000 1054.000 1059.000 1063.000 1067.000 1072.000 1078.000 1083.000 1090.000 1099.000 -9999.000 1114.000 1121.000 1129.000 1138.000 1151.000 1162.000 1170.000 1176.000 1180.000 1184.000 1190.000 -9999.000 1204.000 1207.000 1211.000 1220.000 1230.000 -9999.000 1248.000 1256.000 1262.000 1269.000 1277.000 1285.000 1295.000 1305.000 1314.000 1324.000 1335.000 1344.000 1352.000 1362.000 -9999.000 1383.000 1396.000 1407.000 1417.000 1427.000 1436.000 1445.000 1451.000 1458.000 -9999.000 1457.000 1446.000 1433.000 1424.000 1415.000 1396.000 1376.000 1363.000 -9999.000 1335.000 -9999.000 1308.000 1297.000 1287.000 1278.000 1269.000 1262.000 1259.000 1252.000 1242.000 -9999.000 -9999.000 1220.000 1218.000 1214.000 1208.000 1196.000 1183.000 1174.000 1165.000 1153.000 1142.000 1140.000 1139.000 1140.000 1139.000 1133.000 -9999.000 1125.000 -9999.000 1122.000 -9999.000 1120.000 1118.000 -9999.000 1115.000 1114.000 -9999.000 1107.000 -9999.000 1090.000 1080.000 1068.000 1053.000 1041.000 1031.000 1022.000 -9999.000 998.000 986.000 974.000 961.000 946.000 933.000 922.000 912.000 901.000 888.000 877.000 867.000 857.000 846.000 836.000 831.000 826.000 -9999.000 827.000 -9999.000 848.000 857.000 864.000 868.000 871.000 872.000 875.000 876.000 877.000 875.000 869.000 862.000 852.000 -9999.000 -9999.000 824.000 806.000 791.000 777.000 765.000 754.000 745.000 737.000 731.000 726.000 720.000 714.000 709.000 705.000 701.000 696.000 690.000 -9999.000 677.000 671.000 666.000 660.000 652.000 645.000
1042.000 1030.000 1018.000 1007.000 997.000 986.000 972.000 959.000 944.000 931.000 924.000 919.000 914.000 906.000 896.000 888.000 882.000 878.000 875.000 874.000 875.000 881.000 888.000 896.000 903.000 908.000 913.000 915.000 918.000 920.000 925.000 928.000 930.000 933.000 -9999.000 942.000 946.000 948.000 950.000 952.000 954.000 954.000 955.000 958.000 962.000 966.000 971.000 977.000 980.000 981.000 984.000 990.000 -9999.000 998.000 1000.000 1005.000 1013.000 1019.000 1023.000 1028.000 1032.000 1035.000 1038.000 -9999.000 1041.000 -9999.000 1047.000 1049.000 1053.000 1059.000 1062.000 1066.000 1071.000 1076.000 -9999.000 1089.000 1098.000 1107.000 1115.000 1122.000 1127.000 1137.000 1150.000 1161.000 1168.000 1174.000 -9999.000 -9999.000 1188.000 1194.000 1199.000 1203.000 1206.000 1212.000 1220.000 1229.000 1238.000 1245.000 1251.000 1258.000 1267.000 1278.000 1288.000 1297.000 1306.000 1317.000 -9999.000 1341.000 1352.000 1360.000 1369.000 1379.000 1391.000 1402.000 1412.000 1423.000 1433.000 1441.000 1448.000 1453.000 1454.000 1443.000 1429.000 1420.000 1413.000 1400.000 1384.000 1364.000 1350.000 1340.000 1324.000 -9999.000 1295.000 1285.000 1276.000 1266.000 -9999.000 1248.000 1239.000 1228.000 1221.000 1215.000 1212.000 1208.000 1200.000 1193.000 1186.000 -9999.000 1170.000 1161.000 1149.000 1137.000 1130.000 1126.000 1125.000 1123.000 1120.000 1116.000 1112.000 1108.000 1106.000 1104.000 1103.000 1102.000 1102.000 1102.000 1103.000 1103.000 -9999.000 1100.000 1099.000 1091.000 1083.000 1070.000 -9999.000 1047.000 1039.000 1029.000 -9999.000 1004.000 993.000 981.000 967.000 953.000 938.000 927.000 917.000 907.000 895.000 882.000 870.000 858.000 -9999.000 834.000 826.000 822.000 818.000 820.000 829.000 840.000 851.000 859.000 -9999.000 864.000 864.000 862.000 861.000 861.000 860.000 854.000 845.000 838.000 -9999.000 826.000 818.000 -9999.000 787.000 773.000 760.000 -9999.000 741.000 735.000 729.000 724.000 718.000 713.000 709.000 706.000 701.000 695.000 689.000 683.000 -9999.000 -9999.000 664.000 659.000 652.000 646.000
1040.000 1031.000 1022.000 1013.000 1002.000 985.000 969.000 957.000 946.000 936.000 926.000 919.000 909.000 899.000 892.000 884.000 879.000 874.000 869.000 866.000 869.000 876.000 883.000 890.000 896.000 902.000 907.000 911.000 913.000 -9999.000 919.000 922.000 924.000 928.000 933.000 939.000 943.000 946.000 948.000 950.000 952.000 953.000 954.000 957.000 961.000 967.000 971.000 976.000 981.000 982.000 985.000 990.000 995.000 998.000 1001.000 -9999.000 1012.000 1017.000 1021.000 1025.000 1029.000 1032.000 1037.000 1039.000 1041.000 -9999.000 1047.000 -9999.000 1053.000 1057.000 1061.000 1066.000 1071.000 1077.000 1083.000 1089.000 1097.000 1105.000 1115.000 1122.000 1128.000 1136.000 1145.000 1156.000 1163.000 1169.000 1174.000 1178.000 1185.000 1190.000 1194.000 1197.000 1200.000 1204.000 1211.000 1220.000 1228.000 1235.000 1242.000 1252.000 1262.000 -9999.000 1283.000 1294.000 1304.000 1315.000 1328.000 1339.000 1350.000 1360.000 1367.000 1378.000 -9999.000 1400.000 1412.000 1422.000 1432.000 1439.000 1446.000 1447.000 1446.000 -9999.000 1418.000 1407.000 1398.000 1386.000 1367.000 1355.000 1346.000 1331.000 1313.000 1300.000 1289.000 1278.000 -9999.000 1257.000 1246.000 -9999.000 1227.000 1216.000 1208.000 1204.000 1199.000 1193.000 1188.000 1183.000 1174.000 1165.000 1156.000 1146.000 1136.000 1126.000 1117.000 1112.000 1112.000 1110.000 -9999.000 1099.000 1093.000 1088.000 -9999.000 1084.000 1085.000 1084.000 -9999.000 -9999.000 1086.000 1089.000 1090.000 1088.000 1088.000 1087.000 1081.000 -9999.000 1061.000 1052.000 1042.000 1031.000 1022.000 1011.000 -9999.000 986.000 971.000 957.000 942.000 931.000 923.000 913.000 900.000 886.000 871.000 856.000 -9999.000 833.000 824.000 818.000 815.000 -9999.000 825.000 839.000 849.000 855.000 857.000 -9999.000 854.000 851.000 851.000 850.000 844.000 -9999.000 836.000 830.000 824.000 816.000 805.000 793.000 780.000 769.000 757.000 747.000 739.000 733.000 728.000 722.000 717.000 713.000 708.000 704.000 -9999.000 695.000 688.000 683.000 678.000 671.000 664.000 658.000 653.000 647.000
1040.000 1030.000 1021.000 1010.000 999.000 984.000 969.000 959.000 949.000 939.000 927.000 912.000 -9999.000 894.000 -9999.000 883.000 878.000 870.000 864.000 863.000 866.000 873.000 880.000 886.000 891.000 896.000 902.000 906.000 909.000 912.000 915.000 917.000 920.000 923.000 928.000 935.000 939.000 943.000 945.000 947.000 949.000 951.000 953.000 957.000 962.000 966.000 968.000 972.000 977.000 981.000 984.000 989.000 993.000 997.000 1001.000 1007.000 1012.000 1016.000 1019.000 -9999.000 1025.000 1029.000 -9999.000 1036.000 1038.000 1042.000 1046.000 1050.000 1053.000 1056.000 1061.000 1066.000 1072.000 1079.000 1084.000 1089.000 1094.000 1102.000 1112.000 1120.000 1127.000 1133.000 1141.000 1150.000 1157.000 1164.000 -9999.000 -9999.000 1179.000 1185.000 1188.000 1190.000 1194.000 1198.000 1205.000 1214.000 1222.000 1230.000 -9999.000 1247.000 1258.000 -9999.000 1283.000 1293.000 -9999.000 1315.000 1326.000 1335.000 1345.000 1356.000 1365.000 1376.000 1389.000 -9999.000 1412.000 1422.000 1432.000 1439.000 1443.000 1444.000 1438.000 1428.000 1412.000 1399.000 1387.000 1374.000 1362.000 1349.000 1333.000 1321.000 1309.000 -9999.000 1280.000 1269.000 1261.000 1250.000 1237.000 1227.000 1218.000 1208.000 1199.000 1192.000 1188.000 1183.000 1178.000 1168.000 1158.000 1146.000 1132.000 1125.000 1121.000 1115.000 1108.000 1101.000 1094.000 1091.000 1087.000 1082.000 1076.000 1072.000 1069.000 1068.000 1067.000 1064.000 1064.000 1064.000 1067.000 1072.000 1073.000 1074.000 1074.000 1076.000 1073.000 1069.000 1062.000 1053.000 1042.000 1031.000 1023.000 1015.000 1004.000 991.000 975.000 960.000 948.000 936.000 924.000 913.000 -9999.000 889.000 871.000 857.000 845.000 831.000 821.000 813.000 809.000 811.000 -9999.000 832.000 843.000 849.000 854.000 853.000 848.000 843.000 838.000 835.000 832.000 828.000 826.000 824.000 -9999.000 807.000 795.000 781.000 772.000 763.000 -9999.000 744.000 737.000 732.000 -9999.000 719.000 716.000 712.000 708.000 704.000 698.000 692.000 686.000 682.000 678.000 672.000 666.000 659.000 653.000 647.000
1043.000 1031.000 1017.000 1003.000 990.000 977.000 968.000 957.000 946.000 934.000 919.000 907.000 898.000 -9999.000 884.000 877.000 871.000 865.000 858.000 -9999.000 865.000 872.000 -9999.000 884.000 889.000 893.000 896.000 901.000 906.000 909.000 912.000 915.000 918.000 921.000 926.000 932.000 937.000 940.000 943.000 946.000 949.000 952.000 954.000 957.000 -9999.000 965.000 967.000 970.000 974.000 979.000 984.000 987.000 -9999.000 995.000 1000.000 1005.000 1009.000 1013.000 1016.000 1020.000 -9999.000 1028.000 1031.000 1032.000 1035.000 1038.000 1044.000 1049.000 1052.000 1055.000 1059.000 1065.000 1072.000 1079.000 1085.000 1088.000 1092.000 1099.000 1107.000 1116.000 1124.000 1131.000 1137.000 1144.000 1150.000 1157.000 1164.000 1169.000 1172.000 1177.000 -9999.000 1185.000 1189.000 1195.000 1202.000 1212.000 1220.000 1228.000 -9999.000 1249.000 1259.000 1270.000 1282.000 1293.000 1302.000 1313.000 1325.000 -9999.000 1343.000 1354.000 1366.000 1377.000 1391.000 1403.000 1415.000 1426.000 1436.000 1441.000 1440.000 1437.000 1428.000 1417.000 1404.000 1392.000 1382.000 1371.000 -9999.000 1334.000 1322.000 1312.000 1298.000 1285.000 -9999.000 1263.000 -9999.000 1242.000 -9999.000 1219.000 1209.000 1200.000 1190.000 1183.000 1177.000 1170.000 1160.000 1149.000 -9999.000 1128.000 1117.000 1109.000 1105.000 -9999.000 1096.000 1086.000 1077.000 1073.000 1071.000 1066.000 1061.000 1056.000 1052.000 -9999.000 1049.000 1048.000 1047.000 1045.000 -9999.000 1049.000 1053.000 1056.000 1058.000 1061.000 1062.000 -9999.000 -9999.000 1055.000 1043.000 1034.000 -9999.000 -9999.000 1006.000 995.000 984.000 971.000 957.000 942.000 927.000 914.000 902.000 892.000 -9999.000 861.000 847.000 832.000 817.000 808.000 804.000 806.000 812.000 826.000 836.000 844.000 850.000 850.000 847.000 841.000 835.000 828.000 824.000 820.000 818.000 -9999.000 807.000 -9999.000 -9999.000 777.000 766.000 758.000 751.000 742.000 735.000 730.000 725.000 719.000 715.000 712.000 707.000 701.000 694.000 688.000 -9999.000 678.000 674.000 670.000 665.000 658.000 653.000 649.000
1045.000 1032.000 1018.000 1006.000 992.000 980.000 -9999.000 951.000 -9999.000 922.000 915.000 906.000 898.000 890.000 880.000 870.000 863.000 856.000 852.000 855.000 862.000 871.000 878.000 882.000 886.000 889.000 -9999.000 897.000 901.000 905.000 910.000 913.000 916.000 920.000 924.000 929.000 934.000 939.000 -9999.000 945.000 949.000 952.000 -9999.000 957.000 961.000 963.000 965.000 969.000 973.000 979.000 982.000 987.000 991.000 994.000 997.000 1001.000 1005.000 1009.000 1014.000 1019.000 -9999.000 1027.000 1030.000 1032.000 1033.000 -9999.000 -9999.000 1047.000 1051.000 1054.000 1058.000 1064.000 1070.000 1076.000 1083.000 -9999.000 1092.000 1098.000 1104.000 1112.000 1120.000 1127.000 1133.000 1138.000 1143.000 1149.000 1158.000 1164.000 1167.000 1172.000 1176.000 1183.000 -9999.000 -9999.000 1205.000 1213.000 1220.000 1228.000 1239.000 -9999.000 1262.000 1275.000 1287.000 1296.000 1306.000 1316.000 -9999.000 1337.000 1347.000 1357.000 1369.000 1379.000 1392.000 1406.000 1417.000 1427.000 1437.000 1440.000 1440.000 1432.000 1420.000 1407.000 1396.000 1386.000 -9999.000 -9999.000 1344.000 1331.000 1319.000 1305.000 1291.000 1275.000 1260.000 1252.000 1244.000 -9999.000 1222.000 1210.000 1199.000 -9999.000 1177.000 -9999.000 1159.000 -9999.000 1140.000 1133.000 -9999.000 1115.000 1106.000 -9999.000 1095.000 1092.000 1082.000 1074.000 1065.000 1058.000 1057.000 1054.000 1046.000 1040.000 1034.000 1032.000 1031.000 1028.000 1026.000 1025.000 1026.000 1029.000 1031.000 1035.000 1039.000 1044.000 1049.000 1053.000 1056.000 1053.000 1046.000 1036.000 1029.000 1015.000 1004.000 997.000 989.000 977.000 966.000 951.000 933.000 917.000 904.000 892.000 877.000 862.000 847.000 830.000 813.000 -9999.000 799.000 800.000 -9999.000 819.000 831.000 838.000 841.000 841.000 840.000 838.000 834.000 826.000 816.000 810.000 807.000 803.000 797.000 789.000 781.000 770.000 -9999.000 752.000 747.000 -9999.000 735.000 730.000 725.000 720.000 -9999.000 707.000 702.000 696.000 692.000 686.000 681.000 675.000 672.000 669.000 665.000 660.000 654.000 647.000
1051.000 1038.000 1023.000 -9999.000 998.000 984.000 971.000 954.000 936.000 -9999.000 914.000 -9999.000 896.000 887.000 879.000 869.000 861.000 852.000 851.000 854.000 860.000 865.000 871.000 877.000 -9999.000 885.000 888.000 892.000 897.000 900.000 906.000 910.000 914.000 918.000 923.000 928.000 932.000 936.000 939.000 -9999.000 947.000 -9999.000 953.000 957.000 959.000 961.000 964.000 966.000 -9999.000 975.000 981.000 987.000 991.000 994.000 996.000 1000.000 -9999.000 1008.000 1013.000 1019.000 1021.000 1024.000 1027.000 1030.000 1033.000 1036.000 1040.000 1044.000 -9999.000 1053.000 1058.000 1063.000 1067.000 1072.000 1078.000 1085.000 1092.000 1096.000 1101.000 1108.000 1115.000 1122.000 -9999.000 -9999.000 1139.000 1145.000 1155.000 1163.000 1169.000 1174.000 -9999.000 1186.000 1196.000 1204.000 1212.000 1218.000 1222.000 1233.000 1246.000 1258.000 1267.000 1279.000 1294.000 1303.000 1311.000 1321.000 1332.000 -9999.000 1352.000 1361.000 1373.000 1384.000 -9999.000 1408.000 1419.000 1426.000 1436.000 1441.000 -9999.000 1431.000 1418.000 1406.000 1393.000 1380.000 1370.000 1357.000 1343.000 1328.000 1314.000 1304.000 1290.000 1273.000 1258.000 1246.000 1236.000 1224.000 -9999.000 1203.000 1195.000 1181.000 1167.000 1155.000 1146.000 1139.000 1130.000 -9999.000 1116.000 1109.000 -9999.000 1092.000 1086.000 1080.000 1073.000 1064.000 1056.000 -9999.000 1045.000 1039.000 1035.000 1030.000 1024.000 1020.000 1015.000 1013.000 1011.000 1011.000 1011.000 1010.000 -9999.000 1012.000 1018.000 1027.000 1031.000 1037.000 1040.000 1046.000 1041.000 -9999.000 -9999.000 1020.000 1010.000 999.000 992.000 981.000 971.000 -9999.000 941.000 923.000 908.000 895.000 879.000 862.000 845.000 828.000 814.000 805.000 797.000 794.000 799.000 809.000 -9999.000 829.000 832.000 833.000 832.000 830.000 825.000 819.000 812.000 803.000 797.000 793.000 784.000 777.000 770.000 763.000 755.000 747.000 -9999.000 740.000 734.000 730.000 727.000 -9999.000 712.000 703.000 697.000 693.000 690.000 685.000 679.000 675.000 671.000 668.000 665.000 659.000 654.000 647.000
1049.000 1039.000 1026.000 -9999.000 998.000 987.000 975.000 960.000 942.000 -9999.000 907.000 901.000 892.000 884.000 875.000 867.000 859.000 -9999.000 848.000 849.000 854.000 858.000 862.000 868.000 875.000 880.000 884.000 888.000 891.000 896.000 -9999.000 906.000 910.000 915.000 920.000 925.000 928.000 932.000 -9999.000 941.000 946.000 949.000 953.000 956.000 958.000 960.000 962.000 966.000 971.000 975.000 980.000 -9999.000 989.000 993.000 997.000 1001.000 1003.000 1006.000 1011.000 1015.000 1018.000 1020.000 1024.000 1028.000 1031.000 1035.000 1038.000 1042.000 1048.000 1051.000 1055.000 -9999.000 1065.000 1070.000 1076.000 1082.000 1090.000 1096.000 1099.000 1105.000 1114.000 1121.000 1128.000 1134.000 1141.000 1148.000 1158.000 1166.000 1173.000 1178.000 1183.000 1189.000 1200.000 1209.000 1217.000 -9999.000 1231.000 1241.000 1256.000 1267.000 1275.000 1286.000 1299.000 1307.000 1315.000 1325.000 -9999.000 1347.000 1355.000 1362.000 1374.000 1386.000 1399.000 1410.000 -9999.000 1429.000 1437.000 1442.000 -9999.000 -9999.000 1418.000 -9999.000 1394.000 1383.000 1368.000 -9999.000 1338.000 -9999.000 1309.000 1297.000 1283.000 1268.000 1255.000 1243.000 -9999.000 1223.000 1211.000 1200.000 1189.000 1175.000 1159.000 1148.000 1141.000 1133.000 1125.000 1117.000 1111.000 -9999.000 1089.000 -9999.000 1075.000 1069.000 1062.000 1055.000 -9999.000 1041.000 1036.000 1032.000 1029.000 1024.000 1020.000 1015.000 1010.000 1005.000 1003.000 1000.000 998.000 994.000 991.000 -9999.000 -9999.000 1004.000 1010.000 1015.000 1022.000 1026.000 1029.000 1029.000 1023.000 1016.000 1012.000 1004.000 996.000 986.000 975.000 964.000 946.000 928.000 914.000 900.000 884.000 863.000 844.000 830.000 818.000 807.000 798.000 793.000 791.000 796.000 804.000 814.000 824.000 824.000 823.000 821.000 817.000 811.000 804.000 797.000 790.000 784.000 -9999.000 768.000 765.000 762.000 -9999.000 745.000 741.000 736.000 731.000 -9999.000 724.000 718.000 709.000 -9999.000 696.000 691.000 687.000 683.000 678.000 -9999.000 -9999.000 669.000 663.000 659.000 655.000 649.000
1043.000 -9999.000 1022.000 1011.000 997.000 983.000 971.000 958.000 938.000 920.000 907.000 -9999.000 887.000 878.000 869.000 861.000 855.000 849.000 844.000 845.000 847.000 -9999.000 855.000 863.000 871.000 878.000 883.000 888.000 891.000 896.000 901.000 906.000 -9999.000 911.000 917.000 922.000 925.000 929.000 935.000 942.000 947.000 950.000 953.000 955.000 958.000 959.000 -9999.000 965.000 970.000 975.000 979.000 983.000 987.000 991.000 995.000 999.000 1002.000 1004.000 1007.000 -9999.000 1014.000 1017.000 -9999.000 1025.000 1029.000 1033.000 1037.000 1041.000 1047.000 1052.000 1056.000 -9999.000 -9999.000 1072.000 1077.000 1083.000 1090.000 1096.000 -9999.000 -9999.000 1115.000 1123.000 1131.000 1138.000 1145.000 -9999.000 1164.000 1171.000 1176.000 -9999.000 1187.000 1195.000 1204.000 1211.000 1219.000 1228.000 1236.000 1248.000 1260.000 1270.000 1278.000 1290.000 1302.000 1311.000 1317.000 1325.000 1338.000 1350.000 1356.000 1362.000 1374.000 1387.000 1399.000 -9999.000 1420.000 1429.000 1435.000 1441.000 1440.000 1434.000 1420.000 1407.000 1396.000 1379.000 -9999.000 1348.000 1333.000 1317.000 1302.000 1290.000 1278.000 1263.000 1251.000 1242.000 1232.000 -9999.000 -9999.000 -9999.000 1186.000 1171.000 1156.000 1148.000 1146.000 1140.000 1131.000 1120.000 1107.000 1097.000 1087.000 1080.000 1073.000 1067.000 1061.000 1055.000 -9999.000 1041.000 1037.000 1033.000 1031.000 1028.000 1023.000 1016.000 1010.000 1004.000 1000.000 994.000 991.000 985.000 981.000 980.000 983.000 988.000 992.000 997.000 1003.000 1009.000 1014.000 1017.000 1014.000 1011.000 1007.000 -9999.000 999.000 989.000 978.000 964.000 948.000 933.000 -9999.000 907.000 888.000 -9999.000 852.000 837.000 823.000 -9999.000 804.000 -9999.000 787.000 786.000 789.000 794.000 800.000 810.000 812.000 814.000 812.000 -9999.000 -9999.000 792.000 784.000 777.000 770.000 765.000 761.000 755.000 749.000 -9999.000 739.000 733.000 727.000 720.000 714.000 708.000 703.000 697.000 692.000 689.000 685.000 680.000 679.000 677.000 -9999.000 671.000 665.000 658.000 654.000 649.000
1047.000 1037.000 1023.000 1008.000 992.000 977.000 964.000 952.000 937.000 920.000 908.000 897.000 879.000 867.000 861.000 856.000 849.000 843.000 840.000 840.000 844.000 849.000 858.000 866.000 874.000 879.000 886.000 891.000 898.000 904.000 907.000 910.000 911.000 914.000 917.000 921.000 925.000 929.000 936.000 941.000 944.000 948.000 951.000 954.000 957.000 960.000 962.000 964.000 969.000 973.000 976.000 -9999.000 983.000 987.000 992.000 996.000 998.000 1001.000 1005.000 1009.000 -9999.000 1015.000 -9999.000 1024.000 1029.000 1034.000 -9999.000 1044.000 1051.000 1056.000 1059.000 1064.000 1070.000 1077.000 -9999.000 1086.000 1092.000 1100.000 1108.000 1114.000 1120.000 1128.000 1134.000 -9999.000 1151.000 1161.000 1170.000 1176.000 1182.000 1187.000 1192.000 1199.000 -9999.000 -9999.000 1221.000 1228.000 1237.000 1249.000 1261.000 1271.000 1281.000 1293.000 1304.000 1312.000 1318.000 1326.000 1336.000 1346.000 1356.000 1364.000 1375.000 1387.000 1396.000 1405.000 1415.000 1424.000 -9999.000 1438.000 1437.000 -9999.000 1420.000 1407.000 1394.000 1378.000 1361.000 1348.000 1335.000 1318.000 1303.000 1291.000 1280.000 1267.000 1255.000 1243.000 1232.000 1222.000 1213.000 1205.000 1192.000 1174.000 1164.000 1159.000 1153.000 1150.000 -9999.000 1129.000 1115.000 1101.000 1096.000 1092.000 1086.000 1080.000 1074.000 1067.000 -9999.000 1056.000 1052.000 1047.000 1044.000 1040.000 1037.000 -9999.000 1019.000 1013.000 1006.000 1000.000 993.000 989.000 983.000 979.000 976.000 978.000 979.000 981.000 985.000 993.000 -9999.000 1001.000 -9999.000 1004.000 1002.000 999.000 996.000 991.000 981.000 965.000 951.000 938.000 924.000 908.000 890.000 875.000 860.000 846.000 834.000 822.000 807.000 792.000 -9999.000 779.000 781.000 785.000 788.000 794.000 -9999.000 809.000 808.000 802.000 793.000 785.000 778.000 772.000 766.000 762.000 758.000 751.000 745.000 741.000 -9999.000 731.000 724.000 716.000 710.000 706.000 -9999.000 695.000 690.000 -9999.000 685.000 682.000 679.000 678.000 675.000 669.000 663.000 657.000 652.000 646.000
1052.000 1037.000 1022.000 1009.000 995.000 976.000 959.000 948.000 -9999.000 923.000 908.000 891.000 877.000 866.000 -9999.000 852.000 845.000 837.000 836.000 838.000 845.000 854.000 863.000 -9999.000 878.000 882.000 887.000 894.000 902.000 909.000 -9999.000 916.000 920.000 923.000 925.000 -9999.000 929.000 932.000 937.000 940.000 942.000 946.000 951.000 954.000 959.000 -9999.000 965.000 -9999.000 970.000 972.000 975.000 978.000 982.000 986.000 989.000 994.000 997.000 1000.000 1004.000 -9999.000 1013.000 1017.000 1021.000 1026.000 1032.000 1038.000 -9999.000 1048.000 1056.000 1060.000 1064.000 1068.000 1074.000 1081.000 1087.000 -9999.000 1099.000 1108.000 -9999.000 1120.000 1125.000 -9999.000 1140.000 1145.000 1154.000 1164.000 1172.000 1179.000 1183.000 1188.000 1193.000 1200.000 1206.000 1213.000 1220.000 -9999.000 1236.000 1247.000 1257.000 1269.000 1280.000 1292.000 1303.000 1309.000 1315.000 1323.000 1332.000 -9999.000 1351.000 1361.000 1372.000 1382.000 1391.000 1399.000 1408.000 1416.000 1424.000 1431.000 1433.000 1428.000 1417.000 1405.000 -9999.000 -9999.000 1371.000 1357.000 1340.000 -9999.000 1313.000 1298.000 -9999.000 1270.000 1260.000 1249.000 1236.000 1227.000 1221.000 -9999.000 1203.000 1193.000 1183.000 -9999.000 1166.000 1158.000 1149.000 1143.000 1133.000 1122.000 1110.000 1102.000 1096.000 1092.000 1086.000 1077.000 1072.000 1070.000 1069.000 1067.000 1064.000 1059.000 1053.000 1045.000 1036.000 1026.000 1018.000 -9999.000 1006.000 999.000 992.000 983.000 977.000 970.000 967.000 965.000 969.000 972.000 978.000 986.000 992.000 995.000 994.000 -9999.000 991.000 989.000 -9999.000 971.000 -9999.000 946.000 930.000 910.000 895.000 880.000 864.000 853.000 843.000 -9999.000 814.000 799.000 -9999.000 779.000 776.000 778.000 782.000 788.000 794.000 799.000 798.000 794.000 789.000 781.000 775.000 770.000 764.000 759.000 -9999.000 749.000 744.000 738.000 733.000 728.000 723.000 717.000 -9999.000 705.000 -9999.000 695.000 691.000 689.000 688.000 683.000 679.000 677.000 675.000 670.000 665.000 -9999.000 652.000 645.000
1054.000 1038.000 1022.000 1008.000 989.000 974.000 960.000 946.000 935.000 921.000 902.000 886.000 873.000 864.000 -9999.000 849.000 841.000 835.000 833.000 838.000 845.000 855.000 866.000 872.000 878.000 882.000 888.000 895.000 901.000 910.000 916.000 920.000 924.000 930.000 932.000 -9999.000 934.000 937.000 939.000 942.000 946.000 950.000 952.000 954.000 959.000 962.000 -9999.000 967.000 969.000 971.000 974.000 978.000 981.000 986.000 990.000 993.000 997.000 -9999.000 1006.000 1011.000 1016.000 1020.000 1024.000 -9999.000 1034.000 -9999.000 1045.000 1050.000 1058.000 1063.000 1067.000 1072.000 1079.000 1087.000 -9999.000 1097.000 1105.000 1114.000 1122.000 1126.000 1130.000 1137.000 1142.000 -9999.000 1156.000 1165.000 1172.000 1178.000 1182.000 1187.000 1192.000 1199.000 1206.000 1212.000 1218.000 1226.000 1234.000 1243.000 -9999.000 1263.000 1274.000 1286.000 1295.000 1301.000 1308.000 1317.000 1327.000 -9999.000 1346.000 1355.000 1365.000 1375.000 1384.000 -9999.000 1402.000 1409.000 1416.000 1423.000 1428.000 1422.000 1413.000 1405.000 1396.000 1384.000 1372.000 1358.000 1347.000 1335.000 1321.000 -9999.000 1291.000 1278.000 1265.000 1254.000 1246.000 1238.000 1230.000 1222.000 1213.000 1205.000 1196.000 1188.000 1181.000 1174.000 1170.000 1159.000 1148.000 1135.000 -9999.000 -9999.000 -9999.000 -9999.000 1100.000 -9999.000 1092.000 1089.000 1086.000 1083.000 1079.000 1073.000 1065.000 1058.000 1048.000 1038.000 1030.000 1022.000 1016.000 1009.000 1000.000 990.000 979.000 969.000 960.000 955.000 955.000 958.000 961.000 969.000 977.000 980.000 983.000 986.000 986.000 986.000 981.000 -9999.000 961.000 -9999.000 937.000 920.000 904.000 890.000 -9999.000 862.000 -9999.000 839.000 827.000 810.000 793.000 780.000 774.000 -9999.000 776.000 781.000 787.000 788.000 787.000 785.000 783.000 779.000 -9999.000 766.000 760.000 754.000 749.000 744.000 739.000 733.000 729.000 724.000 720.000 -9999.000 711.000 708.000 703.000 697.000 -9999.000 691.000 687.000 -9999.000 679.000 676.000 674.000 670.000 665.000 659.000 652.000 645.000
1049.000 -9999.000 1016.000 -9999.000 984.000 970.000 -9999.000 942.000 929.000 914.000 894.000 878.000 868.000 859.000 851.000 845.000 839.000 834.000 832.000 838.000 846.000 855.000 864.000 871.000 877.000 883.000 889.000 895.000 903.000 910.000 917.000 923.000 928.000 932.000 936.000 939.000 944.000 945.000 947.000 946.000 949.000 952.000 953.000 954.000 956.000 959.000 962.000 964.000 967.000 970.000 974.000 -9999.000 -9999.000 986.000 990.000 995.000 999.000 1004.000 1009.000 1013.000 1018.000 1022.000 1026.000 1030.000 -9999.000 1041.000 1048.000 1054.000 1060.000 1065.000 1071.000 1078.000 1085.000 -9999.000 -9999.000 1100.000 1107.000 1117.000 1125.000 1130.000 1136.000 1140.000 1145.000 1150.000 1158.000 1166.000 1173.000 1176.000 -9999.000 1185.000 1189.000 1196.000 1202.000 1208.000 1215.000 1221.000 1230.000 1239.000 1247.000 1254.000 1265.000 1274.000 1284.000 1290.000 1298.000 1308.000 -9999.000 1327.000 1339.000 1349.000 1356.000 1366.000 1373.000 1382.000 1390.000 1400.000 1410.000 1419.000 1425.000 1424.000 1417.000 1407.000 1397.000 1388.000 1375.000 1365.000 1354.000 1343.000 1329.000 1314.000 1302.000 1290.000 1278.000 -9999.000 1256.000 -9999.000 1241.000 1234.000 1225.000 1218.000 1213.000 1205.000 1197.000 1190.000 1178.000 1167.000 1159.000 1151.000 1140.000 1129.000 1123.000 1118.000 1116.000 1113.000 1108.000 1103.000 1099.000 1095.000 1091.000 1085.000 1079.000 1070.000 -9999.000 1049.000 1041.000 1032.000 1022.000 1014.000 -9999.000 998.000 -9999.000 976.000 965.000 959.000 953.000 949.000 -9999.000 952.000 958.000 961.000 967.000 969.000 -9999.000 974.000 973.000 967.000 961.000 951.000 941.000 927.000 914.000 899.000 879.000 -9999.000 856.000 846.000 -9999.000 823.000 805.000 788.000 -9999.000 772.000 769.000 771.000 773.000 775.000 775.000 776.000 775.000 772.000 767.000 761.000 -9999.000 750.000 746.000 741.000 735.000 729.000 724.000 717.000 713.000 711.000 -9999.000 706.000 702.000 697.000 694.000 692.000 687.000 681.000 678.000 676.000 673.000 670.000 663.000 -9999.000 -9999.000 647.000
1046.000 1030.000 1015.000 997.000 980.000 968.000 955.000 -9999.000 922.000 907.000 890.000 873.000 863.000 856.000 848.000 842.000 -9999.000 -9999.000 832.000 835.000 845.000 854.000 862.000 871.000 881.000 888.000 892.000 -9999.000 904.000 913.000 921.000 927.000 930.000 933.000 937.000 942.000 947.000 951.000 952.000 952.000 952.000 -9999.000 953.000 955.000 958.000 960.000 -9999.000 -9999.000 966.000 969.000 974.000 978.000 982.000 986.000 990.000 997.000 -9999.000 1006.000 1010.000 -9999.000 1017.000 1021.000 -9999.000 -9999.000 1039.000 1045.000 -9999.000 1055.000 1060.000 1065.000 1073.000 1081.000 1086.000 1091.000 -9999.000 1103.000 1109.000 1116.000 1124.000 1130.000 1136.000 -9999.000 1145.000 1151.000 1158.000 1167.000 1171.000 1174.000 1177.000 1182.000 -9999.000 1192.000 1197.000 -9999.000 1207.000 1214.000 1223.000 1230.000 1237.000 1245.000 1255.000 1262.000 1269.000 1279.000 1287.000 1297.000 1307.000 1317.000 1327.000 1338.000 -9999.000 1356.000 -9999.000 1372.000 1382.000 1393.000 -9999.000 -9999.000 -9999.000 1422.000 1417.000 1409.000 1400.000 -9999.000 -9999.000 1370.000 -9999.000 1347.000 -9999.000 1321.000 1310.000 -9999.000 1294.000 1284.000 1273.000 1261.000 1251.000 -9999.000 1237.000 1231.000 1227.000 1218.000 1208.000 1198.000 -9999.000 -9999.000 1171.000 1168.000 1159.000 1150.000 1143.000 1138.000 1133.000 1129.000 1124.000 1119.000 -9999.000 1107.000 1100.000 1094.000 1088.000 1081.000 1072.000 1059.000 1049.000 1039.000 1031.000 1023.000 1016.000 1007.000 -9999.000 987.000 976.000 964.000 955.000 947.000 937.000 936.000 940.000 945.000 951.000 953.000 956.000 957.000 957.000 958.000 955.000 950.000 942.000 933.000 919.000 904.000 -9999.000 872.000 861.000 852.000 843.000 831.000 818.000 803.000 790.000 777.000 769.000 764.000 763.000 761.000 763.000 763.000 763.000 763.000 759.000 -9999.000 749.000 746.000 743.000 740.000 -9999.000 -9999.000 721.000 716.000 712.000 710.000 708.000 704.000 699.000 695.000 692.000 689.000 685.000 681.000 678.000 676.000 674.000 669.000 664.000 657.000 652.000 647.000
1045.000 1028.000 1013.000 993.000 973.000 964.000 952.000 934.000 -9999.000 905.000 888.000 869.000 859.000 853.000 844.000 836.000 832.000 827.000 828.000 833.000 840.000 849.000 860.000 872.000 880.000 887.000 892.000 898.000 905.000 913.000 919.000 925.000 929.000 933.000 938.000 945.000 950.000 954.000 955.000 955.000 956.000 956.000 956.000 959.000 961.000 963.000 964.000 966.000 968.000 971.000 973.000 978.000 981.000 985.000 991.000 997.000 1003.000 1006.000 1010.000 1013.000 1016.000 1022.000 1027.000 1034.000 1041.000 1046.000 1050.000 1055.000 1060.000 1065.000 1073.000 1082.000 1087.000 1093.000 1099.000 1105.000 1110.000 1116.000 1123.000 1129.000 1134.000 1137.000 -9999.000 1149.000 1156.000 1162.000 1167.000 1170.000 -9999.000 1176.000 1181.000 1185.000 1188.000 1192.000 1199.000 1207.000 1215.000 1219.000 1226.000 1233.000 -9999.000 -9999.000 1258.000 1267.000 1278.000 1288.000 1298.000 -9999.000 -9999.000 1328.000 1339.000 1350.000 1358.000 1367.000 1378.000 1391.000 1403.000 1412.000 1418.000 1421.000 -9999.000 1411.000 1405.000 1397.000 1387.000 1375.000 1364.000 1354.000 1343.000 1331.000 1322.000 1313.000 1305.000 1297.000 1287.000 1276.000 1267.000 1261.000 1254.000 -9999.000 1241.000 1235.000 1223.000 -9999.000 1197.000 1191.000 1183.000 1178.000 1177.000 1170.000 1161.000 1155.000 1151.000 1149.000 1145.000 1140.000 1132.000 1120.000 1110.000 1103.000 1096.000 1090.000 1080.000 1069.000 1059.000 1050.000 1042.000 1035.000 -9999.000 -9999.000 1004.000 993.000 981.000 971.000 -9999.000 947.000 937.000 931.000 930.000 932.000 936.000 942.000 942.000 944.000 -9999.000 945.000 944.000 -9999.000 938.000 930.000 920.000 -9999.000 894.000 883.000 873.000 861.000 849.000 837.000 824.000 813.000 802.000 -9999.000 -9999.000 769.000 761.000 755.000 753.000 752.000 751.000 750.000 748.000 745.000 740.000 737.000 735.000 734.000 731.000 725.000 719.000 714.000 711.000 708.000 704.000 701.000 698.000 695.000 692.000 688.000 684.000 -9999.000 678.000 675.000 672.000 667.000 661.000 657.000 651.000 643.000
1048.000 1029.000 1011.000 991.000 -9999.000 960.000 947.000 -9999.000 -9999.000 900.000 883.000 868.000 857.000 848.000 839.000 831.000 825.000 825.000 827.000 834.000 841.000 847.000 857.000 866.000 876.000 886.000 893.000 898.000 905.000 912.000 918.000 923.000 929.000 -9999.000 939.000 944.000 950.000 953.000 954.000 954.000 956.000 957.000 959.000 960.000 963.000 965.000 966.000 967.000 969.000 972.000 976.000 979.000 982.000 985.000 989.000 995.000 1002.000 1006.000 1010.000 1013.000 1017.000 1021.000 1028.000 1035.000 1041.000 1047.000 1051.000 1055.000 1060.000 -9999.000 1075.000 1082.000 1088.000 1095.000 1100.000 1105.000 -9999.000 1114.000 1119.000 1126.000 1130.000 1133.000 1137.000 1142.000 1149.000 1155.000 1158.000 1162.000 1165.000 1169.000 1173.000 1178.000 1180.000 1183.000 1189.000 1197.000 1204.000 1210.000 1215.000 1223.000 -9999.000 1236.000 1245.000 1257.000 1268.000 1278.000 1289.000 1300.000 1309.000 1320.000 1332.000 1343.000 -9999.000 1362.000 1373.000 1384.000 -9999.000 1408.000 1418.000 -9999.000 1420.000 1416.000 1407.000 -9999.000 1392.000 1382.000 1371.000 1363.000 1353.000 1342.000 1333.000 1325.000 1317.000 1310.000 1299.000 1289.000 1282.000 1276.000 1270.000 1262.000 1256.000 -9999.000 1246.000 -9999.000 1222.000 1211.000 1201.000 1195.000 1190.000 -9999.000 1178.000 1173.000 1170.000 1164.000 1159.000 1157.000 1149.000 1134.000 1121.000 1109.000 1102.000 1094.000 1085.000 1074.000 1067.000 1056.000 1049.000 1041.000 1033.000 1023.000 1012.000 1001.000 991.000 981.000 970.000 959.000 949.000 939.000 930.000 923.000 922.000 922.000 927.000 927.000 -9999.000 928.000 931.000 932.000 931.000 927.000 -9999.000 913.000 -9999.000 893.000 882.000 870.000 856.000 843.000 833.000 823.000 814.000 803.000 791.000 780.000 769.000 763.000 752.000 747.000 743.000 740.000 737.000 732.000 728.000 726.000 725.000 726.000 -9999.000 714.000 -9999.000 709.000 706.000 -9999.000 701.000 698.000 -9999.000 694.000 -9999.000 688.000 685.000 680.000 677.000 672.000 -9999.000 663.000 660.000 657.000 650.000 642.000
1046.000 1031.000 1010.000 989.000 972.000 955.000 941.000 925.000 908.000 893.000 -9999.000 866.000 853.000 843.000 835.000 828.000 824.000 822.000 824.000 832.000 838.000 846.000 855.000 864.000 875.000 884.000 891.000 -9999.000 907.000 913.000 918.000 924.000 929.000 -9999.000 937.000 941.000 945.000 949.000 950.000 952.000 953.000 956.000 957.000 961.000 964.000 966.000 967.000 -9999.000 969.000 973.000 978.000 980.000 -9999.000 984.000 988.000 993.000 999.000 -9999.000 1008.000 1012.000 1017.000 1022.000 1027.000 1035.000 1042.000 1046.000 1051.000 1055.000 1060.000 1066.000 1073.000 1080.000 1086.000 1093.000 1098.000 1102.000 1107.000 1110.000 1113.000 1117.000 1123.000 1128.000 1131.000 1136.000 1141.000 1146.000 1150.000 1152.000 1155.000 -9999.000 1163.000 1168.000 1173.000 1176.000 -9999.000 1186.000 1192.000 1196.000 1203.000 1212.000 1221.000 1230.000 1237.000 1247.000 1259.000 1269.000 1280.000 1293.000 1304.000 1314.000 1323.000 1335.000 1345.000 1355.000 1368.000 1379.000 -9999.000 1401.000 1411.000 1421.000 1425.000 1424.000 1418.000 1409.000 1400.000 1392.000 1382.000 1373.000 1363.000 1355.000 1346.000 -9999.000 1332.000 1323.000 1315.000 1309.000 1302.000 1294.000 1286.000 1279.000 1273.000 1267.000 1260.000 1252.000 1246.000 1242.000 1231.000 1223.000 1218.000 1214.000 -9999.000 1191.000 1184.000 1176.000 1170.000 1163.000 1157.000 1146.000 1132.000 1119.000 1106.000 1096.000 1087.000 1080.000 1074.000 1065.000 1055.000 1047.000 1039.000 1030.000 1020.000 1010.000 1001.000 990.000 981.000 970.000 958.000 -9999.000 933.000 923.000 915.000 -9999.000 913.000 915.000 913.000 -9999.000 918.000 918.000 919.000 919.000 917.000 913.000 -9999.000 898.000 888.000 877.000 867.000 856.000 846.000 835.000 822.000 811.000 800.000 793.000 786.000 775.000 763.000 754.000 746.000 740.000 734.000 -9999.000 725.000 722.000 720.000 718.000 713.000 709.000 706.000 704.000 701.000 698.000 696.000 695.000 693.000 691.000 688.000 685.000 683.000 679.000 674.000 670.000 665.000 661.000 658.000 655.000 649.000 641.000
1043.000 1026.000 1008.000 987.000 969.000 954.000 938.000 920.000 903.000 889.000 878.000 867.000 -9999.000 843.000 -9999.000 829.000 825.000 821.000 -9999.000 826.000 835.000 843.000 854.000 865.000 872.000 880.000 891.000 901.000 908.000 914.000 917.000 -9999.000 925.000 930.000 933.000 936.000 940.000 944.000 947.000 948.000 951.000 953.000 957.000 960.000 964.000 966.000 968.000 969.000 971.000 973.000 978.000 980.000 981.000 983.000 987.000 -9999.000 997.000 1000.000 1004.000 1009.000 1015.000 1020.000 1027.000 1035.000 1041.000 1046.000 1049.000 1053.000 1058.000 1063.000 -9999.000 1076.000 1083.000 1090.000 1096.000 1099.000 1102.000 1105.000 1107.000 1112.000 1118.000 1122.000 -9999.000 1131.000 1135.000 1138.000 1142.000 1144.000 1147.000 1149.000 -9999.000 1158.000 1164.000 1168.000 1172.000 1176.000 1180.000 1185.000 1191.000 1201.000 1211.000 1221.000 -9999.000 1241.000 1250.000 1262.000 1274.000 1286.000 1297.000 1308.000 1318.000 1327.000 1339.000 -9999.000 -9999.000 1375.000 1388.000 1398.000 1408.000 1418.000 1426.000 1431.000 1428.000 1421.000 1412.000 1405.000 1397.000 1386.000 1377.000 1369.000 1361.000 1353.000 1346.000 1339.000 1334.000 1327.000 1320.000 -9999.000 1307.000 1300.000 -9999.000 1285.000 1277.000 1273.000 1268.000 1262.000 1252.000 1244.000 1237.000 1230.000 1220.000 1208.000 1198.000 1189.000 1178.000 -9999.000 1162.000 1152.000 1139.000 1126.000 1113.000 1101.000 1091.000 1083.000 1079.000 1073.000 1067.000 1058.000 -9999.000 1041.000 1031.000 1019.000 1009.000 1001.000 989.000 979.000 970.000 960.000 949.000 -9999.000 926.000 918.000 916.000 912.000 906.000 -9999.000 904.000 905.000 905.000 906.000 907.000 906.000 904.000 898.000 890.000 884.000 876.000 868.000 858.000 844.000 830.000 -9999.000 808.000 799.000 792.000 -9999.000 775.000 767.000 759.000 750.000 745.000 740.000 736.000 729.000 723.000 718.000 712.000 707.000 705.000 701.000 696.000 694.000 692.000 689.000 688.000 -9999.000 683.000 679.000 675.000 673.000 670.000 666.000 662.000 659.000 -9999.000 651.000 646.000 641.000
1046.000 1026.000 1002.000 984.000 970.000 -9999.000 934.000 -9999.000 899.000 888.000 876.000 861.000 849.000 842.000 -9999.000 829.000 823.000 817.000 -9999.000 825.000 834.000 -9999.000 854.000 864.000 873.000 880.000 890.000 899.000 906.000 913.000 916.000 916.000 919.000 925.000 928.000 932.000 936.000 941.000 945.000 949.000 950.000 953.000 955.000 958.000 961.000 964.000 968.000 970.000 972.000 974.000 977.000 980.000 980.000 982.000 985.000 991.000 994.000 997.000 1001.000 1006.000 1012.000 1018.000 1025.000 1033.000 1039.000 1043.000 1046.000 1050.000 1055.000 1060.000 1067.000 1074.000 -9999.000 1086.000 1091.000 1095.000 1099.000 1103.000 1106.000 1109.000 1111.000 1114.000 1118.000 1124.000 1127.000 1130.000 1133.000 1135.000 -9999.000 1142.000 1144.000 -9999.000 1153.000 1159.000 1162.000 1167.000 1170.000 1176.000 1184.000 1194.000 1203.000 1211.000 1225.000 1237.000 1245.000 1254.000 -9999.000 1280.000 1291.000 1303.000 1313.000 1324.000 1336.000 1349.000 1361.000 1371.000 1385.000 1396.000 1406.000 1418.000 1427.000 1435.000 1436.000 1430.000 1424.000 1417.000 1410.000 1400.000 1391.000 1384.000 1375.000 1366.000 1360.000 1355.000 1350.000 1343.000 1336.000 -9999.000 1323.000 1315.000 1310.000 1301.000 1293.000 1285.000 1281.000 -9999.000 -9999.000 1256.000 1248.000 1237.000 1225.000 1215.000 1206.000 -9999.000 1183.000 1175.000 1167.000 1157.000 1147.000 1136.000 1121.000 1104.000 1094.000 1088.000 1083.000 -9999.000 1071.000 1065.000 1058.000 1050.000 1039.000 1029.000 1021.000 1010.000 1000.000 990.000 -9999.000 969.000 962.000 956.000 945.000 935.000 928.000 919.000 908.000 899.000 895.000 891.000 893.000 895.000 896.000 899.000 899.000 896.000 892.000 -9999.000 880.000 872.000 -9999.000 -9999.000 -9999.000 830.000 820.000 811.000 800.000 790.000 782.000 774.000 767.000 762.000 757.000 751.000 745.000 737.000 730.000 -9999.000 718.000 712.000 706.000 -9999.000 699.000 695.000 690.000 686.000 682.000 680.000 678.000 675.000 672.000 670.000 669.000 666.000 661.000 657.000 654.000 650.000 647.000 641.000
1045.000 1028.000 1008.000 989.000 973.000 953.000 929.000 910.000 897.000 884.000 871.000 861.000 850.000 841.000 834.000 826.000 819.000 815.000 814.000 823.000 833.000 843.000 853.000 863.000 871.000 878.000 885.000 893.000 900.000 907.000 911.000 914.000 915.000 919.000 925.000 928.000 931.000 937.000 -9999.000 945.000 949.000 951.000 953.000 955.000 959.000 963.000 -9999.000 971.000 973.000 975.000 977.000 -9999.000 980.000 982.000 985.000 988.000 -9999.000 994.000 -9999.000 1005.000 1009.000 1015.000 1020.000 1028.000 1034.000 1038.000 1042.000 1046.000 1052.000 1058.000 1064.000 1070.000 1075.000 1080.000 1084.000 1089.000 1094.000 1098.000 1101.000 1104.000 1105.000 1107.000 1109.000 1111.000 -9999.000 1119.000 1121.000 1125.000 1129.000 1132.000 1131.000 1134.000 1138.000 1145.000 1150.000 1155.000 1160.000 1167.000 1176.000 1183.000 -9999.000 1205.000 1218.000 1231.000 1241.000 1250.000 1262.000 -9999.000 -9999.000 1298.000 1312.000 1323.000 1335.000 1347.000 1359.000 1368.000 1379.000 1391.000 1403.000 -9999.000 1426.000 -9999.000 1436.000 1436.000 1433.000 -9999.000 1419.000 1411.000 1402.000 1396.000 1389.000 1382.000 1375.000 1368.000 1361.000 1355.000 1348.000 1341.000 1332.000 1324.000 -9999.000 1308.000 1299.000 1290.000 1283.000 1276.000 1266.000 1257.000 1248.000 1237.000 1224.000 -9999.000 1205.000 1195.000 1184.000 1175.000 1168.000 1157.000 1148.000 -9999.000 1130.000 1116.000 1104.000 1096.000 1090.000 1083.000 1076.000 1068.000 1061.000 1055.000 1048.000 1037.000 -9999.000 1018.000 1009.000 1000.000 989.000 979.000 971.000 964.000 956.000 944.000 935.000 926.000 913.000 903.000 895.000 888.000 883.000 882.000 885.000 889.000 -9999.000 892.000 889.000 885.000 880.000 875.000 868.000 860.000 849.000 839.000 827.000 -9999.000 812.000 801.000 790.000 781.000 -9999.000 769.000 762.000 -9999.000 750.000 -9999.000 736.000 731.000 724.000 716.000 710.000 705.000 701.000 697.000 691.000 684.000 -9999.000 676.000 675.000 674.000 671.000 668.000 666.000 664.000 660.000 655.000 653.000 650.000 645.000 641.000
1045.000 1027.000 1010.000 992.000 -9999.000 953.000 928.000 908.000 891.000 878.000 870.000 860.000 851.000 842.000 -9999.000 -9999.000 -9999.000 812.000 815.000 822.000 832.000 -9999.000 850.000 859.000 868.000 876.000 882.000 887.000 892.000 897.000 904.000 -9999.000 911.000 916.000 920.000 924.000 928.000 933.000 939.000 944.000 948.000 951.000 952.000 953.000 -9999.000 961.000 965.000 968.000 -9999.000 975.000 977.000 978.000 980.000 982.000 984.000 987.000 990.000 993.000 -9999.000 1001.000 1006.000 1010.000 1016.000 1023.000 1029.000 1033.000 1037.000 1041.000 1046.000 1052.000 1058.000 1063.000 1068.000 1073.000 1078.000 1082.000 1087.000 -9999.000 1094.000 1096.000 1098.000 1099.000 1101.000 1102.000 1105.000 1109.000 1111.000 1115.000 1117.000 1119.000 1121.000 1123.000 1129.000 1134.000 1140.000 1146.000 1152.000 -9999.000 -9999.000 1178.000 1188.000 1199.000 1211.000 1225.000 1237.000 1246.000 1259.000 1271.000 1281.000 1294.000 1308.000 1319.000 1331.000 1343.000 1354.000 1362.000 1373.000 1386.000 1399.000 1411.000 1421.000 1429.000 1435.000 1438.000 1438.000 1437.000 1431.000 1423.000 1415.000 1406.000 1398.000 -9999.000 1384.000 1375.000 -9999.000 1361.000 1353.000 -9999.000 1335.000 1326.000 1317.000 1308.000 1299.000 1290.000 1280.000 1272.000 1263.000 1253.000 1244.000 1233.000 1222.000 1212.000 1201.000 1192.000 1184.000 1175.000 1166.000 -9999.000 1148.000 1140.000 1132.000 1120.000 1107.000 1099.000 1092.000 1085.000 1080.000 1072.000 1065.000 1059.000 1051.000 1041.000 1033.000 1023.000 1014.000 1006.000 998.000 988.000 978.000 970.000 961.000 948.000 939.000 930.000 920.000 907.000 897.000 886.000 880.000 875.000 875.000 879.000 882.000 883.000 -9999.000 883.000 881.000 878.000 873.000 866.000 -9999.000 844.000 834.000 825.000 819.000 810.000 801.000 790.000 781.000 775.000 769.000 761.000 754.000 747.000 740.000 733.000 -9999.000 718.000 712.000 707.000 703.000 698.000 692.000 687.000 681.000 677.000 674.000 671.000 669.000 665.000 662.000 659.000 656.000 653.000 649.000 -9999.000 643.000 638.000
1042.000 1023.000 1005.000 990.000 974.000 -9999.000 934.000 913.000 897.000 883.000 871.000 859.000 849.000 841.000 834.000 825.000 817.000 -9999.000 812.000 -9999.000 828.000 838.000 847.000 856.000 864.000 872.000 878.000 882.000 887.000 890.000 -9999.000 900.000 905.000 910.000 916.000 920.000 926.000 931.000 938.000 943.000 946.000 949.000 951.000 953.000 956.000 960.000 964.000 967.000 971.000 974.000 976.000 978.000 980.000 -9999.000 984.000 986.000 989.000 993.000 996.000 999.000 1003.000 -9999.000 1013.000 1018.000 -9999.000 1029.000 1033.000 1037.000 1041.000 1046.000 1052.000 1056.000 1062.000 1067.000 1072.000 -9999.000 1079.000 1083.000 1086.000 1088.000 1089.000 1091.000 1093.000 1095.000 1097.000 1099.000 -9999.000 1105.000 1108.000 -9999.000 1113.000 1118.000 1124.000 1129.000 -9999.000 1141.000 1150.000 1158.000 1167.000 1175.000 1183.000 1195.000 1207.000 1219.000 1231.000 1242.000 1255.000 1269.000 1279.000 1290.000 1301.000 1312.000 1324.000 1338.000 1349.000 1357.000 1367.000 1379.000 1392.000 1405.000 1413.000 1423.000 1430.000 1434.000 1438.000 1440.000 -9999.000 -9999.000 1424.000 -9999.000 1406.000 1399.000 1390.000 1381.000 1371.000 1361.000 -9999.000 -9999.000 1336.000 -9999.000 -9999.000 1304.000 1295.000 -9999.000 -9999.000 1266.000 1258.000 1249.000 1238.000 1227.000 1218.000 1208.000 1198.000 1190.000 1181.000 1173.000 -9999.000 1155.000 1145.000 -9999.000 1128.000 1116.000 1108.000 -9999.000 1091.000 1085.000 1079.000 1071.000 1065.000 1058.000 1051.000 1042.000 1031.000 1023.000 1016.000 1008.000 1001.000 991.000 982.000 -9999.000 962.000 951.000 941.000 932.000 921.000 911.000 901.000 888.000 -9999.000 872.000 869.000 869.000 872.000 875.000 -9999.000 880.000 -9999.000 877.000 -9999.000 867.000 858.000 850.000 -9999.000 832.000 824.000 817.000 807.000 798.000 787.000 777.000 770.000 764.000 757.000 749.000 742.000 735.000 727.000 720.000 712.000 707.000 702.000 698.000 694.000 689.000 683.000 678.000 674.000 671.000 668.000 665.000 660.000 -9999.000 653.000 648.000 644.000 642.000 639.000 636.000
1041.000 1020.000 1003.000 986.000 970.000 953.000 932.000 914.000 899.000 887.000 873.000 858.000 848.000 839.000 829.000 821.000 813.000 808.000 807.000 814.000 824.000 835.000 -9999.000 851.000 858.000 867.000 874.000 879.000 883.000 886.000 888.000 892.000 898.000 -9999.000 -9999.000 917.000 923.000 930.000 936.000 940.000 942.000 945.000 949.000 952.000 956.000 960.000 965.000 968.000 971.000 973.000 -9999.000 979.000 981.000 981.000 983.000 986.000 990.000 994.000 998.000 1001.000 1003.000 1006.000 -9999.000 1015.000 1021.000 1025.000 1029.000 -9999.000 1037.000 1041.000 1046.000 1051.000 1057.000 1062.000 1066.000 1068.000 1071.000 1075.000 1078.000 1080.000 1081.000 1082.000 1086.000 1087.000 -9999.000 -9999.000 1094.000 1096.000 -9999.000 1102.000 1107.000 -9999.000 1119.000 1127.000 1134.000 1141.000 1149.000 1158.000 1166.000 1172.000 1181.000 1191.000 1202.000 1215.000 1226.000 1237.000 1251.000 1266.000 1277.000 1287.000 1296.000 1308.000 1320.000 -9999.000 1344.000 1354.000 -9999.000 1371.000 1381.000 1392.000 -9999.000 1412.000 1422.000 -9999.000 1433.000 1437.000 1436.000 1432.000 1428.000 1421.000 1412.000 1403.000 1394.000 1384.000 1373.000 1362.000 -9999.000 1343.000 1335.000 1325.000 1315.000 1305.000 1292.000 1282.000 1272.000 1264.000 1256.000 1244.000 1232.000 1221.000 1212.000 1203.000 1193.000 1183.000 1172.000 1164.000 1158.000 1151.000 1140.000 1129.000 1119.000 1110.000 1102.000 1095.000 1088.000 1082.000 -9999.000 1067.000 -9999.000 1051.000 1045.000 1037.000 1029.000 -9999.000 -9999.000 1007.000 997.000 989.000 981.000 972.000 963.000 953.000 -9999.000 933.000 923.000 915.000 906.000 894.000 882.000 873.000 867.000 862.000 862.000 866.000 869.000 873.000 874.000 -9999.000 869.000 862.000 -9999.000 849.000 843.000 834.000 826.000 816.000 808.000 799.000 790.000 779.000 772.000 765.000 757.000 749.000 740.000 733.000 728.000 720.000 712.000 -9999.000 702.000 -9999.000 695.000 689.000 683.000 678.000 -9999.000 -9999.000 668.000 665.000 661.000 656.000 651.000 646.000 641.000 639.000 638.000 635.000
1038.000 1022.000 1002.000 983.000 966.000 948.000 928.000 910.000 898.000 885.000 870.000 857.000 847.000 838.000 830.000 820.000 -9999.000 803.000 -9999.000 809.000 820.000 831.000 841.000 848.000 854.000 862.000 869.000 873.000 878.000 882.000 885.000 889.000 895.000 903.000 908.000 914.000 921.000 928.000 -9999.000 938.000 940.000 943.000 -9999.000 952.000 956.000 960.000 965.000 970.000 972.000 974.000 977.000 980.000 981.000 -9999.000 983.000 986.000 -9999.000 996.000 999.000 1001.000 1003.000 1007.000 1011.000 1013.000 1017.000 1022.000 1026.000 1029.000 1032.000 -9999.000 1041.000 1045.000 1051.000 1055.000 1059.000 1062.000 1064.000 -9999.000 1070.000 1072.000 1075.000 1077.000 1078.000 1082.000 1085.000 1086.000 1087.000 1088.000 1090.000 1094.000 1100.000 1106.000 1114.000 1123.000 1133.000 1141.000 -9999.000 1157.000 -9999.000 1170.000 1180.000 1190.000 1199.000 1210.000 1223.000 1234.000 1246.000 1259.000 1271.000 1281.000 -9999.000 1303.000 1313.000 1325.000 1336.000 1348.000 1358.000 1364.000 1371.000 1381.000 1391.000 -9999.000 -9999.000 1421.000 1428.000 1431.000 1432.000 1430.000 1429.000 1420.000 1410.000 1402.000 1393.000 1384.000 1374.000 1364.000 1355.000 1346.000 1335.000 1324.000 1313.000 1303.000 1292.000 1281.000 1272.000 1263.000 1254.000 1243.000 1230.000 1218.000 1209.000 -9999.000 -9999.000 1175.000 1165.000 1157.000 1150.000 1139.000 1127.000 1120.000 -9999.000 1103.000 1094.000 1087.000 1080.000 -9999.000 1063.000 -9999.000 -9999.000 1044.000 1037.000 1029.000 1023.000 1015.000 1008.000 1000.000 992.000 -9999.000 977.000 970.000 962.000 953.000 943.000 933.000 924.000 914.000 905.000 894.000 -9999.000 873.000 865.000 857.000 855.000 -9999.000 858.000 862.000 868.000 869.000 865.000 858.000 851.000 -9999.000 838.000 831.000 824.000 815.000 806.000 799.000 788.000 779.000 772.000 765.000 757.000 747.000 738.000 -9999.000 728.000 720.000 712.000 704.000 -9999.000 697.000 693.000 688.000 683.000 -9999.000 674.000 670.000 666.000 662.000 658.000 654.000 651.000 646.000 640.000 636.000 -9999.000 630.000
1033.000 1018.000 1000.000 981.000 964.000 945.000 925.000 910.000 897.000 883.000 868.000 854.000 845.000 838.000 -9999.000 819.000 809.000 803.000 804.000 810.000 821.000 829.000 838.000 845.000 852.000 -9999.000 864.000 868.000 873.000 880.000 -9999.000 -9999.000 895.000 902.000 -9999.000 914.000 920.000 -9999.000 934.000 939.000 940.000 944.000 948.000 954.000 958.000 961.000 966.000 970.000 973.000 975.000 978.000 979.000 980.000 982.000 984.000 988.000 992.000 996.000 1000.000 1000.000 1003.000 1007.000 1010.000 -9999.000 1015.000 1019.000 1023.000 1027.000 1030.000 1033.000 1036.000 1039.000 1043.000 1048.000 -9999.000 1057.000 1059.000 1060.000 1063.000 1067.000 1070.000 -9999.000 1075.000 1076.000 1079.000 1078.000 1078.000 1079.000 1084.000 1088.000 1094.000 1100.000 1111.000 1121.000 1129.000 1139.000 1148.000 1155.000 1161.000 1168.000 1178.000 1188.000 1197.000 1208.000 1218.000 1230.000 1241.000 1255.000 1265.000 1277.000 1288.000 1299.000 1309.000 -9999.000 1328.000 1340.000 1349.000 1358.000 1366.000 1375.000 1384.000 1395.000 1405.000 1411.000 1417.000 -9999.000 1426.000 1426.000 1424.000 -9999.000 1410.000 -9999.000 1394.000 1385.000 1376.000 1367.000 1358.000 1348.000 1337.000 1325.000 1315.000 -9999.000 1293.000 1283.000 1275.000 1266.000 1252.000 1239.000 1225.000 1213.000 1201.000 1186.000 1175.000 -9999.000 1157.000 1147.000 1135.000 1124.000 1118.000 1112.000 1103.000 1093.000 1084.000 -9999.000 1070.000 1062.000 1053.000 1048.000 1043.000 1036.000 1028.000 1022.000 1017.000 1011.000 1003.000 996.000 989.000 980.000 972.000 965.000 957.000 948.000 939.000 930.000 -9999.000 909.000 900.000 889.000 878.000 870.000 863.000 854.000 -9999.000 847.000 846.000 850.000 856.000 857.000 856.000 852.000 845.000 -9999.000 -9999.000 826.000 820.000 812.000 805.000 798.000 790.000 781.000 773.000 -9999.000 757.000 748.000 742.000 737.000 730.000 722.000 713.000 706.000 700.000 695.000 692.000 687.000 683.000 680.000 -9999.000 671.000 665.000 -9999.000 655.000 652.000 649.000 645.000 640.000 634.000 630.000 625.000
1032.000 1019.000 1005.000 983.000 962.000 944.000 926.000 911.000 -9999.000 884.000 872.000 856.000 845.000 837.000 -9999.000 817.000 810.000 805.000 805.000 809.000 813.000 823.000 -9999.000 839.000 846.000 855.000 860.000 864.000 870.000 876.000 883.000 889.000 894.000 -9999.000 907.000 914.000 919.000 926.000 933.000 938.000 -9999.000 -9999.000 951.000 957.000 961.000 965.000 968.000 971.000 973.000 -9999.000 978.000 980.000 982.000 984.000 987.000 989.000 991.000 995.000 999.000 1000.000 1002.000 1006.000 1009.000 1011.000 1013.000 1015.000 1020.000 1025.000 1029.000 1031.000 1033.000 1036.000 1040.000 -9999.000 1049.000 -9999.000 1055.000 1056.000 -9999.000 1061.000 1064.000 1065.000 1067.000 1069.000 1069.000 1069.000 1068.000 1071.000 1077.000 1084.000 1090.000 1100.000 1109.000 1119.000 1128.000 1136.000 1144.000 1151.000 1159.000 -9999.000 1176.000 1186.000 1195.000 1206.000 1216.000 1227.000 1240.000 1252.000 1261.000 1271.000 1281.000 1292.000 1303.000 1314.000 1323.000 1332.000 1341.000 1349.000 1358.000 1366.000 1374.000 -9999.000 1395.000 1403.000 1407.000 1412.000 1418.000 1420.000 1421.000 1419.000 1413.000 1405.000 1397.000 -9999.000 1378.000 1368.000 1358.000 1348.000 1339.000 1330.000 1320.000 1311.000 1299.000 1290.000 1281.000 1271.000 1254.000 1238.000 1225.000 1212.000 1200.000 1185.000 1171.000 1164.000 1154.000 1142.000 1130.000 1120.000 1110.000 1101.000 1093.000 1085.000 -9999.000 1070.000 1062.000 1053.000 1045.000 1039.000 1033.000 1026.000 1018.000 1012.000 1008.000 1003.000 995.000 -9999.000 980.000 973.000 964.000 955.000 946.000 939.000 932.000 925.000 915.000 -9999.000 896.000 885.000 875.000 867.000 -9999.000 849.000 842.000 836.000 -9999.000 833.000 838.000 844.000 845.000 842.000 836.000 832.000 827.000 821.000 815.000 809.000 801.000 793.000 785.000 777.000 772.000 766.000 757.000 -9999.000 742.000 737.000 730.000 723.000 715.000 708.000 701.000 697.000 691.000 -9999.000 684.000 680.000 676.000 670.000 664.000 660.000 -9999.000 650.000 646.000 643.000 640.000 635.000 631.000 627.000
1032.000 1019.000 999.000 980.000 963.000 945.000 923.000 905.000 895.000 883.000 869.000 857.000 844.000 835.000 -9999.000 818.000 811.000 805.000 803.000 805.000 -9999.000 817.000 825.000 833.000 840.000 847.000 854.000 -9999.000 865.000 873.000 881.000 887.000 892.000 898.000 906.000 912.000 918.000 926.000 934.000 941.000 946.000 951.000 957.000 961.000 965.000 -9999.000 971.000 972.000 -9999.000 976.000 979.000 983.000 984.000 986.000 987.000 988.000 991.000 995.000 999.000 1000.000 1002.000 1005.000 1008.000 1009.000 1011.000 1014.000 1018.000 1024.000 1028.000 1029.000 1031.000 1034.000 1037.000 1041.000 1046.000 1049.000 1051.000 1051.000 1052.000 1054.000 1056.000 -9999.000 1057.000 1059.000 1060.000 1061.000 1063.000 1067.000 -9999.000 1081.000 1088.000 1097.000 1106.000 1115.000 1124.000 -9999.000 1141.000 1148.000 1157.000 1167.000 1174.000 1180.000 1192.000 1203.000 1212.000 1221.000 1233.000 1245.000 1255.000 1263.000 1272.000 1281.000 1293.000 1305.000 1315.000 -9999.000 1332.000 1340.000 1347.000 1355.000 -9999.000 1373.000 -9999.000 -9999.000 1398.000 1402.000 1408.000 1412.000 -9999.000 1419.000 1417.000 1409.000 1402.000 1393.000 1381.000 1368.000 1358.000 1348.000 1338.000 1331.000 -9999.000 1316.000 1304.000 1294.000 1285.000 1274.000 1260.000 1242.000 1226.000 1212.000 -9999.000 -9999.000 -9999.000 1163.000 1152.000 1141.000 1130.000 1121.000 1111.000 1100.000 1091.000 1080.000 1071.000 -9999.000 1055.000 -9999.000 1039.000 1031.000 1024.000 1015.000 1008.000 1002.000 996.000 989.000 982.000 975.000 970.000 962.000 955.000 947.000 938.000 931.000 926.000 918.000 909.000 899.000 889.000 879.000 870.000 860.000 -9999.000 843.000 835.000 827.000 820.000 819.000 825.000 828.000 832.000 834.000 832.000 829.000 823.000 814.000 805.000 800.000 793.000 786.000 780.000 775.000 770.000 763.000 -9999.000 -9999.000 740.000 -9999.000 -9999.000 723.000 715.000 707.000 701.000 696.000 -9999.000 687.000 683.000 680.000 674.000 668.000 663.000 -9999.000 653.000 648.000 644.000 -9999.000 637.000 633.000 -9999.000 623.000
1032.000 1017.000 994.000 971.000 957.000 943.000 923.000 907.000 891.000 878.000 870.000 859.000 844.000 834.000 825.000 817.000 -9999.000 804.000 801.000 803.000 806.000 813.000 820.000 828.000 834.000 841.000 848.000 855.000 862.000 -9999.000 878.000 885.000 892.000 899.000 906.000 914.000 921.000 930.000 -9999.000 946.000 951.000 957.000 962.000 965.000 967.000 970.000 973.000 976.000 -9999.000 980.000 983.000 -9999.000 987.000 987.000 987.000 987.000 990.000 -9999.000 1000.000 -9999.000 -9999.000 1004.000 -9999.000 1006.000 1010.000 1014.000 1018.000 1022.000 1026.000 1028.000 1030.000 1031.000 1034.000 1036.000 1041.000 -9999.000 1044.000 1045.000 1046.000 1047.000 1047.000 1047.000 1048.000 -9999.000 1051.000 1054.000 -9999.000 1063.000 1072.000 1078.000 1085.000 1093.000 1101.000 1111.000 1123.000 1133.000 1140.000 1147.000 1156.000 1164.000 1171.000 1178.000 1188.000 1198.000 1206.000 1215.000 1223.000 1235.000 1244.000 1253.000 1263.000 1272.000 1281.000 1294.000 1305.000 1312.000 1321.000 1330.000 -9999.000 1346.000 1354.000 1362.000 1370.000 1379.000 1385.000 1391.000 1395.000 1401.000 1408.000 1415.000 1417.000 1414.000 -9999.000 1398.000 1382.000 1371.000 1362.000 1354.000 1344.000 1335.000 1327.000 1320.000 1307.000 1295.000 1284.000 1274.000 1262.000 1249.000 1232.000 1211.000 1203.000 1196.000 1182.000 1167.000 1159.000 1148.000 1137.000 1127.000 1117.000 1105.000 1092.000 1080.000 1069.000 1061.000 1054.000 1047.000 1037.000 1027.000 -9999.000 1010.000 1003.000 996.000 990.000 982.000 974.000 -9999.000 963.000 957.000 950.000 942.000 934.000 927.000 920.000 913.000 902.000 891.000 883.000 877.000 870.000 863.000 850.000 841.000 832.000 -9999.000 814.000 810.000 809.000 812.000 816.000 820.000 824.000 822.000 815.000 805.000 800.000 796.000 791.000 785.000 779.000 773.000 -9999.000 -9999.000 -9999.000 747.000 739.000 -9999.000 724.000 720.000 714.000 706.000 -9999.000 696.000 -9999.000 687.000 683.000 678.000 673.000 669.000 665.000 661.000 655.000 -9999.000 642.000 638.000 633.000 628.000 625.000 622.000
1031.000 1011.000 990.000 974.000 960.000 943.000 926.000 909.000 894.000 883.000 868.000 854.000 842.000 831.000 821.000 811.000 804.000 800.000 798.000 799.000 802.000 809.000 -9999.000 822.000 -9999.000 837.000 845.000 -9999.000 859.000 867.000 -9999.000 -9999.000 -9999.000 899.000 907.000 916.000 924.000 932.000 941.000 948.000 955.000 963.000 969.000 972.000 974.000 976.000 978.000 980.000 982.000 984.000 -9999.000 987.000 989.000 989.000 990.000 990.000 992.000 995.000 999.000 1001.000 1001.000 1002.000 1003.000 1006.000 1011.000 1014.000 1017.000 1020.000 1023.000 1025.000 1027.000 1030.000 1031.000 1033.000 1035.000 1036.000 -9999.000 -9999.000 1038.000 1037.000 1037.000 1037.000 1038.000 1041.000 -9999.000 1047.000 1053.000 1060.000 1068.000 1078.000 1085.000 1091.000 1099.000 1110.000 1123.000 -9999.000 -9999.000 1145.000 1152.000 1159.000 1167.000 1173.000 1183.000 1193.000 -9999.000 1209.000 1217.000 1226.000 1235.000 1244.000 1252.000 1263.000 1272.000 1282.000 1292.000 1301.000 1310.000 1318.000 1327.000 1335.000 1343.000 1349.000 -9999.000 1363.000 1370.000 1375.000 1383.000 1391.000 1397.000 1408.000 1414.000 1418.000 1413.000 1407.000 1392.000 -9999.000 1370.000 1361.000 1352.000 1341.000 1332.000 1323.000 1310.000 -9999.000 1285.000 1275.000 1264.000 -9999.000 1241.000 -9999.000 1210.000 1202.000 1190.000 1177.000 1168.000 1157.000 1141.000 -9999.000 1121.000 1110.000 1101.000 -9999.000 1077.000 1068.000 1060.000 1051.000 1040.000 1030.000 1022.000 1014.000 1003.000 995.000 986.000 982.000 978.000 974.000 967.000 -9999.000 952.000 943.000 -9999.000 930.000 922.000 916.000 908.000 900.000 895.000 889.000 882.000 873.000 859.000 845.000 830.000 818.000 807.000 798.000 795.000 800.000 806.000 808.000 811.000 811.000 807.000 802.000 796.000 792.000 788.000 784.000 777.000 770.000 765.000 759.000 754.000 -9999.000 739.000 728.000 722.000 717.000 713.000 707.000 700.000 695.000 690.000 686.000 682.000 677.000 673.000 670.000 666.000 662.000 657.000 650.000 643.000 637.000 632.000 -9999.000 623.000 621.000
1029.000 1011.000 991.000 979.000 969.000 953.000 -9999.000 911.000 896.000 880.000 864.000 851.000 841.000 830.000 817.000 807.000 800.000 794.000 791.000 791.000 794.000 799.000 809.000 818.000 -9999.000 832.000 840.000 848.000 855.000 862.000 871.000 880.000 888.000 897.000 907.000 916.000 925.000 933.000 940.000 950.000 -9999.000 967.000 -9999.000 978.000 981.000 982.000 983.000 -9999.000 986.000 987.000 988.000 990.000 991.000 992.000 -9999.000 993.000 -9999.000 993.000 995.000 997.000 998.000 1001.000 1004.000 1007.000 1011.000 1013.000 1016.000 1017.000 1019.000 1020.000 1023.000 1024.000 1026.000 1027.000 1028.000 1028.000 1028.000 1028.000 -9999.000 1025.000 -9999.000 1026.000 1029.000 1033.000 1038.000 1043.000 1049.000 1056.000 1065.000 1075.000 1084.000 1092.000 1099.000 -9999.000 1120.000 1130.000 1137.000 -9999.000 1147.000 1154.000 1162.000 1169.000 1176.000 1185.000 -9999.000 1201.000 1208.000 1219.000 1229.000 1236.000 1245.000 1256.000 1264.000 1271.000 1280.000 1291.000 1298.000 1306.000 1314.000 1322.000 1330.000 1338.000 1345.000 1350.000 1357.000 1364.000 -9999.000 1379.000 1387.000 1396.000 1407.000 1413.000 1413.000 1408.000 1401.000 -9999.000 1381.000 1371.000 1359.000 1348.000 1338.000 1330.000 1321.000 1306.000 1288.000 1278.000 -9999.000 1258.000 1245.000 1232.000 1222.000 1211.000 1199.000 1186.000 -9999.000 1164.000 1151.000 1138.000 1128.000 1120.000 1111.000 1102.000 1093.000 -9999.000 1071.000 1064.000 1053.000 1042.000 1040.000 1038.000 1023.000 1011.000 1006.000 1001.000 996.000 993.000 987.000 977.000 968.000 965.000 960.000 952.000 946.000 939.000 -9999.000 918.000 910.000 902.000 895.000 885.000 873.000 859.000 843.000 822.000 805.000 795.000 789.000 788.000 795.000 799.000 -9999.000 800.000 796.000 793.000 789.000 787.000 -9999.000 780.000 774.000 766.000 760.000 755.000 751.000 746.000 738.000 727.000 721.000 717.000 712.000 707.000 702.000 696.000 690.000 686.000 681.000 -9999.000 673.000 669.000 665.000 -9999.000 655.000 648.000 641.000 635.000 629.000 625.000 621.000 619.000
1025.000 1011.000 996.000 982.000 976.000 967.000 948.000 927.000 906.000 886.000 867.000 -9999.000 837.000 827.000 818.000 808.000 799.000 794.000 789.000 788.000 791.000 798.000 806.000 -9999.000 824.000 830.000 837.000 844.000 853.000 859.000 867.000 877.000 -9999.000 896.000 905.000 913.000 922.000 932.000 942.000 951.000 961.000 970.000 978.000 984.000 985.000 -9999.000 986.000 987.000 989.000 989.000 989.000 991.000 992.000 993.000 994.000 994.000 -9999.000 -9999.000 995.000 996.000 997.000 1000.000 1003.000 1007.000 1009.000 1011.000 -9999.000 1015.000 -9999.000 1016.000 1018.000 1017.000 1016.000 1016.000 -9999.000 1018.000 1017.000 1017.000 1016.000 1014.000 1014.000 1018.000 -9999.000 1029.000 1037.000 1042.000 1047.000 1053.000 1062.000 1074.000 1083.000 1091.000 1098.000 1108.000 -9999.000 1127.000 1133.000 1139.000 1144.000 -9999.000 1159.000 1166.000 -9999.000 -9999.000 1183.000 -9999.000 1199.000 1210.000 1220.000 1228.000 1235.000 1244.000 1255.000 1263.000 1268.000 -9999.000 1286.000 1293.000 -9999.000 1309.000 1318.000 1325.000 1332.000 1338.000 1344.000 1351.000 1360.000 1367.000 -9999.000 1387.000 1396.000 1406.000 1411.000 1407.000 1402.000 1397.000 1390.000 1378.000 1367.000 1357.000 -9999.000 1340.000 1333.000 1319.000 1301.000 1285.000 1273.000 1264.000 1253.000 1241.000 1231.000 1220.000 1206.000 1195.000 1188.000 1174.000 1159.000 1148.000 -9999.000 1132.000 1123.000 1113.000 1104.000 1095.000 1083.000 1075.000 1069.000 1064.000 -9999.000 1053.000 1043.000 1032.000 1023.000 1021.000 1014.000 1007.000 1001.000 996.000 989.000 985.000 980.000 972.000 963.000 958.000 951.000 942.000 931.000 919.000 907.000 895.000 884.000 872.000 855.000 -9999.000 814.000 -9999.000 790.000 786.000 783.000 783.000 788.000 -9999.000 787.000 783.000 779.000 778.000 776.000 772.000 768.000 761.000 756.000 751.000 -9999.000 743.000 737.000 729.000 722.000 716.000 710.000 705.000 701.000 696.000 691.000 685.000 681.000 676.000 671.000 666.000 664.000 660.000 -9999.000 -9999.000 640.000 633.000 -9999.000 623.000 620.000 617.000
1035.000 1021.000 -9999.000 990.000 977.000 966.000 946.000 924.000 -9999.000 888.000 868.000 850.000 -9999.000 828.000 817.000 808.000 801.000 796.000 792.000 789.000 790.000 797.000 804.000 810.000 816.000 826.000 835.000 842.000 850.000 858.000 866.000 873.000 882.000 893.000 903.000 -9999.000 919.000 931.000 941.000 951.000 962.000 -9999.000 981.000 986.000 988.000 988.000 988.000 990.000 -9999.000 990.000 990.000 991.000 991.000 993.000 994.000 995.000 -9999.000 996.000 996.000 995.000 996.000 999.000 1001.000 1003.000 1004.000 1007.000 1010.000 1011.000 1011.000 1012.000 1011.000 -9999.000 1009.000 1009.000 1009.000 1009.000 1007.000 1005.000 1004.000 1005.000 1008.000 1014.000 1022.000 1031.000 -9999.000 1045.000 1048.000 1053.000 -9999.000 1069.000 -9999.000 1087.000 1094.000 1102.000 1112.000 -9999.000 -9999.000 1135.000 1142.000 1149.000 1154.000 1160.000 1165.000 1171.000 -9999.000 1183.000 1191.000 -9999.000 1209.000 1219.000 1226.000 1234.000 1244.000 1252.000 1259.000 1266.000 1276.000 1284.000 1291.000 1299.000 1305.000 1313.000 1318.000 1324.000 1329.000 1338.000 -9999.000 1355.000 1366.000 1376.000 1388.000 1397.000 1401.000 1405.000 1404.000 1397.000 1390.000 1382.000 1373.000 1363.000 1354.000 1345.000 1337.000 1325.000 1310.000 1295.000 -9999.000 1272.000 1262.000 1252.000 1240.000 1230.000 1219.000 1209.000 1197.000 1182.000 1168.000 1158.000 1148.000 -9999.000 1128.000 1121.000 1116.000 -9999.000 1094.000 1087.000 1081.000 1077.000 1072.000 1066.000 -9999.000 1048.000 1039.000 1034.000 1028.000 1022.000 1015.000 1010.000 1004.000 999.000 992.000 984.000 -9999.000 972.000 -9999.000 955.000 943.000 928.000 913.000 901.000 890.000 878.000 862.000 848.000 825.000 807.000 793.000 784.000 775.000 774.000 774.000 -9999.000 775.000 773.000 769.000 767.000 765.000 761.000 756.000 752.000 745.000 743.000 741.000 739.000 733.000 725.000 717.000 712.000 -9999.000 704.000 701.000 696.000 692.000 687.000 681.000 674.000 668.000 664.000 661.000 658.000 653.000 646.000 639.000 633.000 628.000 623.000 618.000 615.000
1039.000 1029.000 1017.000 -9999.000 986.000 968.000 947.000 -9999.000 902.000 885.000 872.000 860.000 845.000 829.000 816.000 806.000 800.000 795.000 787.000 783.000 784.000 791.000 -9999.000 804.000 810.000 819.000 829.000 838.000 848.000 856.000 862.000 868.000 -9999.000 890.000 901.000 909.000 -9999.000 -9999.000 938.000 950.000 961.000 972.000 981.000 987.000 989.000 990.000 991.000 992.000 992.000 993.000 992.000 991.000 -9999.000 -9999.000 992.000 993.000 993.000 993.000 992.000 993.000 994.000 996.000 997.000 998.000 998.000 1000.000 1004.000 1005.000 1005.000 1005.000 1004.000 1003.000 -9999.000 1002.000 1002.000 1000.000 997.000 996.000 997.000 1000.000 1009.000 1017.000 1025.000 1033.000 1041.000 1045.000 1047.000 1051.000 -9999.000 1066.000 1074.000 1084.000 1090.000 1096.000 1103.000 1115.000 1123.000 1129.000 1136.000 1142.000 -9999.000 1152.000 1158.000 1165.000 1173.000 1179.000 1186.000 1195.000 1201.000 1210.000 1219.000 1225.000 1234.000 1241.000 1249.000 -9999.000 1266.000 1274.000 1282.000 1288.000 1294.000 1299.000 -9999.000 1310.000 1317.000 1324.000 1334.000 1343.000 1355.000 1366.000 1376.000 1385.000 1392.000 1397.000 1398.000 1394.000 1388.000 -9999.000 1375.000 1366.000 1356.000 -9999.000 1337.000 -9999.000 -9999.000 1302.000 -9999.000 1281.000 1271.000 1260.000 -9999.000 1237.000 1229.000 1221.000 -9999.000 1194.000 1178.000 1164.000 1154.000 1147.000 1137.000 1127.000 1119.000 1112.000 1102.000 1092.000 1087.000 1084.000 1079.000 1073.000 1066.000 1058.000 1051.000 1045.000 -9999.000 1033.000 1027.000 1018.000 1012.000 -9999.000 999.000 992.000 986.000 -9999.000 972.000 961.000 948.000 935.000 923.000 -9999.000 896.000 883.000 870.000 -9999.000 843.000 819.000 805.000 -9999.000 -9999.000 768.000 762.000 761.000 760.000 757.000 756.000 757.000 753.000 748.000 745.000 739.000 735.000 731.000 -9999.000 724.000 -9999.000 716.000 712.000 708.000 705.000 703.000 700.000 695.000 689.000 683.000 677.000 672.000 666.000 660.000 656.000 652.000 647.000 641.000 636.000 -9999.000 627.000 622.000 618.000 615.000
1037.000 1025.000 1008.000 991.000 976.000 960.000 941.000 923.000 904.000 884.000 870.000 860.000 842.000 827.000 816.000 807.000 798.000 790.000 -9999.000 778.000 -9999.000 784.000 790.000 797.000 805.000 814.000 824.000 834.000 844.000 852.000 858.000 866.000 876.000 887.000 899.000 907.000 915.000 924.000 935.000 945.000 955.000 967.000 978.000 984.000 988.000 989.000 992.000 994.000 994.000 994.000 993.000 993.000 992.000 992.000 991.000 990.000 990.000 989.000 990.000 991.000 992.000 993.000 -9999.000 993.000 992.000 994.000 996.000 997.000 998.000 997.000 997.000 995.000 995.000 994.000 993.000 990.000 989.000 990.000 994.000 1002.000 1012.000 1020.000 1026.000 1034.000 1041.000 1045.000 1048.000 1050.000 -9999.000 1065.000 1074.000 1083.000 1089.000 1093.000 1102.000 1108.000 1115.000 1121.000 1127.000 1134.000 1141.000 1147.000 1153.000 1160.000 -9999.000 1174.000 1180.000 1188.000 1197.000 1206.000 1213.000 1219.000 1225.000 1232.000 1240.000 1247.000 1254.000 1259.000 -9999.000 1277.000 1282.000 1289.000 1295.000 1303.000 1309.000 1316.000 1324.000 1335.000 1346.000 1355.000 1365.000 1375.000 1383.000 1387.000 1387.000 1384.000 1381.000 1377.000 1370.000 1361.000 1353.000 1345.000 1337.000 1327.000 1316.000 1305.000 1297.000 1288.000 1278.000 -9999.000 1254.000 -9999.000 1232.000 1223.000 1215.000 1203.000 1189.000 1174.000 1163.000 1155.000 1146.000 1135.000 1126.000 1116.000 1105.000 1096.000 1090.000 1086.000 1082.000 1077.000 1072.000 1065.000 1058.000 1052.000 1045.000 1039.000 1032.000 1024.000 1015.000 1008.000 1003.000 996.000 987.000 980.000 -9999.000 -9999.000 954.000 944.000 935.000 927.000 912.000 898.000 885.000 869.000 856.000 837.000 818.000 807.000 791.000 777.000 -9999.000 755.000 754.000 751.000 751.000 748.000 744.000 740.000 -9999.000 730.000 725.000 722.000 719.000 -9999.000 712.000 709.000 707.000 704.000 700.000 697.000 693.000 688.000 682.000 676.000 671.000 -9999.000 662.000 656.000 649.000 645.000 642.000 638.000 633.000 630.000 627.000 621.000 617.000 615.000
1028.000 1017.000 1000.000 982.000 968.000 -9999.000 941.000 924.000 908.000 891.000 874.000 859.000 846.000 833.000 820.000 810.000 800.000 791.000 783.000 778.000 777.000 779.000 784.000 791.000 799.000 809.000 820.000 830.000 840.000 849.000 858.000 868.000 878.000 -9999.000 894.000 901.000 910.000 921.000 933.000 943.000 951.000 961.000 971.000 979.000 985.000 990.000 993.000 996.000 995.000 995.000 995.000 994.000 993.000 991.000 988.000 987.000 -9999.000 986.000 987.000 987.000 988.000 988.000 988.000 988.000 988.000 988.000 -9999.000 988.000 988.000 -9999.000 987.000 986.000 985.000 985.000 983.000 982.000 984.000 988.000 994.000 1002.000 1011.000 1018.000 1025.000 1033.000 1040.000 1044.000 1046.000 1049.000 1054.000 1063.000 -9999.000 1080.000 1084.000 1089.000 1094.000 -9999.000 1106.000 1112.000 1118.000 1126.000 1134.000 1140.000 1147.000 1154.000 1161.000 1167.000 1174.000 1184.000 1193.000 1201.000 1208.000 1213.000 1219.000 1226.000 1232.000 1238.000 1245.000 1250.000 1255.000 -9999.000 1272.000 1279.000 1287.000 1296.000 1304.000 -9999.000 1319.000 1329.000 1340.000 1349.000 1357.000 1367.000 1375.000 1376.000 1376.000 1372.000 1368.000 1364.000 1358.000 1351.000 1345.000 1339.000 1331.000 1323.000 1316.000 1307.000 1298.000 1289.000 1279.000 1267.000 1256.000 -9999.000 1233.000 1224.000 1217.000 1208.000 1195.000 1182.000 1170.000 1160.000 1151.000 1140.000 1128.000 1119.000 -9999.000 -9999.000 1094.000 1086.000 1080.000 1077.000 1074.000 1069.000 1062.000 1056.000 1048.000 1040.000 1033.000 1025.000 1016.000 1009.000 1002.000 995.000 987.000 979.000 973.000 967.000 960.000 951.000 -9999.000 937.000 926.000 914.000 902.000 887.000 868.000 849.000 832.000 816.000 804.000 790.000 -9999.000 770.000 763.000 760.000 -9999.000 746.000 739.000 734.000 730.000 725.000 720.000 717.000 -9999.000 711.000 708.000 706.000 703.000 699.000 694.000 690.000 685.000 682.000 677.000 -9999.000 666.000 662.000 656.000 -9999.000 642.000 639.000 637.000 635.000 633.000 628.000 622.000 616.000 613.000 612.000
1015.000 1003.000 987.000 974.000 963.000 948.000 935.000 923.000 908.000 887.000 -9999.000 855.000 845.000 833.000 822.000 811.000 801.000 792.000 782.000 778.000 776.000 777.000 780.000 788.000 796.000 806.000 816.000 826.000 834.000 845.000 855.000 867.000 878.000 884.000 890.000 896.000 906.000 918.000 929.000 939.000 949.000 958.000 967.000 977.000 987.000 992.000 996.000 998.000 996.000 995.000 995.000 994.000 992.000 989.000 986.000 983.000 982.000 981.000 982.000 982.000 982.000 981.000 981.000 -9999.000 981.000 981.000 981.000 980.000 979.000 979.000 978.000 977.000 975.000 974.000 974.000 976.000 982.000 988.000 994.000 1000.000 1008.000 1017.000 1024.000 1030.000 -9999.000 -9999.000 1044.000 1048.000 1053.000 1060.000 1070.000 1075.000 1079.000 1082.000 1086.000 1093.000 1100.000 1106.000 1112.000 1119.000 1127.000 -9999.000 1140.000 1147.000 1154.000 1162.000 1171.000 1179.000 1187.000 1195.000 1202.000 1208.000 1213.000 1219.000 1225.000 1231.000 1238.000 1243.000 1249.000 1255.000 1262.000 -9999.000 1275.000 1284.000 1294.000 1303.000 1312.000 -9999.000 1335.000 1345.000 1353.000 1359.000 1363.000 1366.000 1364.000 1358.000 1351.000 1347.000 1342.000 -9999.000 1330.000 1325.000 -9999.000 1313.000 1309.000 1304.000 1296.000 1288.000 1279.000 1269.000 1259.000 1249.000 1237.000 1226.000 1217.000 1209.000 1198.000 1186.000 1175.000 1164.000 1153.000 1142.000 1132.000 -9999.000 1111.000 -9999.000 1096.000 1088.000 1081.000 1077.000 1072.000 1068.000 1063.000 1056.000 1048.000 1040.000 -9999.000 1025.000 1017.000 1010.000 1003.000 995.000 987.000 981.000 976.000 970.000 960.000 950.000 944.000 936.000 927.000 919.000 912.000 898.000 881.000 862.000 -9999.000 -9999.000 816.000 -9999.000 794.000 787.000 781.000 775.000 765.000 -9999.000 752.000 745.000 738.000 733.000 729.000 725.000 721.000 717.000 715.000 710.000 704.000 699.000 -9999.000 692.000 687.000 681.000 676.000 669.000 664.000 658.000 653.000 646.000 639.000 634.000 632.000 632.000 628.000 623.000 617.000 612.000 610.000 608.000
1001.000 987.000 975.000 966.000 953.000 -9999.000 923.000 908.000 891.000 879.000 866.000 854.000 844.000 833.000 822.000 809.000 798.000 789.000 782.000 778.000 777.000 779.000 782.000 788.000 797.000 807.000 816.000 824.000 833.000 842.000 854.000 864.000 872.000 -9999.000 885.000 -9999.000 905.000 -9999.000 927.000 935.000 944.000 956.000 966.000 978.000 987.000 994.000 998.000 1000.000 998.000 996.000 995.000 992.000 988.000 984.000 981.000 979.000 978.000 978.000 978.000 977.000 -9999.000 975.000 976.000 976.000 976.000 976.000 974.000 -9999.000 970.000 969.000 969.000 967.000 966.000 965.000 968.000 975.000 983.000 990.000 994.000 1000.000 1005.000 1012.000 1021.000 1027.000 1033.000 1038.000 1044.000 1048.000 1053.000 1059.000 -9999.000 1072.000 1076.000 1081.000 1086.000 1092.000 1098.000 1103.000 1108.000 1116.000 1123.000 1131.000 1139.000 1146.000 1155.000 -9999.000 1169.000 1175.000 1181.000 1188.000 1195.000 1201.000 1206.000 1210.000 1216.000 1222.000 1229.000 1236.000 1243.000 1250.000 1257.000 1262.000 1268.000 1275.000 1284.000 1295.000 1305.000 1314.000 1325.000 1336.000 1345.000 1352.000 1353.000 -9999.000 1349.000 -9999.000 1340.000 1333.000 1327.000 1319.000 1313.000 -9999.000 1304.000 1300.000 1297.000 1293.000 1288.000 1284.000 1279.000 1271.000 1261.000 1251.000 1241.000 1231.000 1221.000 1212.000 1201.000 1190.000 1178.000 1167.000 1157.000 1147.000 1136.000 1122.000 1112.000 1105.000 1098.000 1092.000 1087.000 1080.000 1074.000 1068.000 1062.000 1056.000 1049.000 1041.000 1033.000 1026.000 -9999.000 1010.000 1004.000 996.000 987.000 982.000 977.000 968.000 957.000 950.000 942.000 934.000 925.000 917.000 908.000 897.000 884.000 -9999.000 857.000 846.000 835.000 -9999.000 816.000 808.000 802.000 794.000 785.000 781.000 775.000 767.000 761.000 755.000 749.000 744.000 740.000 735.000 727.000 721.000 715.000 711.000 708.000 705.000 697.000 689.000 680.000 672.000 666.000 660.000 655.000 648.000 641.000 637.000 -9999.000 628.000 624.000 620.000 615.000 612.000 608.000 607.000
984.000 972.000 961.000 950.000 940.000 927.000 913.000 899.000 888.000 875.000 861.000 849.000 839.000 -9999.000 -9999.000 805.000 796.000 786.000 778.000 775.000 775.000 777.000 781.000 787.000 796.000 806.000 815.000 824.000 832.000 841.000 852.000 862.000 870.000 874.000 -9999.000 892.000 903.000 914.000 922.000 929.000 939.000 951.000 963.000 976.000 985.000 993.000 -9999.000 1002.000 1000.000 997.000 994.000 990.000 -9999.000 983.000 979.000 977.000 975.000 975.000 974.000 972.000 -9999.000 968.000 968.000 969.000 968.000 968.000 966.000 964.000 961.000 959.000 958.000 959.000 959.000 962.000 966.000 975.000 983.000 988.000 991.000 -9999.000 1000.000 1006.000 1014.000 1023.000 1030.000 1037.000 1042.000 1047.000 1053.000 -9999.000 1063.000 1070.000 1076.000 1083.000 1088.000 1094.000 -9999.000 1103.000 -9999.000 1115.000 1123.000 -9999.000 1135.000 1144.000 1153.000 1162.000 1167.000 1172.000 1176.000 1180.000 1188.000 1193.000 1198.000 1202.000 1207.000 1214.000 1222.000 1230.000 1237.000 1245.000 1252.000 -9999.000 1264.000 1272.000 1281.000 1291.000 1301.000 1310.000 1320.000 1330.000 1338.000 1342.000 1342.000 1337.000 1331.000 1329.000 -9999.000 1319.000 1312.000 1304.000 1299.000 1295.000 -9999.000 1286.000 -9999.000 1277.000 1275.000 1273.000 1272.000 1266.000 1259.000 1250.000 1242.000 1232.000 1224.000 1214.000 1204.000 1192.000 1179.000 1166.000 1156.000 1148.000 1138.000 1128.000 1117.000 1108.000 1100.000 -9999.000 1087.000 1081.000 1074.000 1066.000 1060.000 1053.000 1047.000 1040.000 1034.000 1026.000 -9999.000 1010.000 1004.000 997.000 989.000 -9999.000 977.000 969.000 -9999.000 948.000 939.000 931.000 922.000 914.000 906.000 896.000 884.000 874.000 861.000 853.000 846.000 836.000 829.000 823.000 817.000 810.000 801.000 794.000 789.000 784.000 -9999.000 769.000 761.000 753.000 747.000 741.000 736.000 729.000 725.000 -9999.000 717.000 711.000 704.000 696.000 689.000 682.000 676.000 668.000 661.000 654.000 648.000 -9999.000 637.000 632.000 -9999.000 -9999.000 618.000 612.000 -9999.000 605.000
965.000 953.000 942.000 931.000 919.000 908.000 897.000 888.000 879.000 867.000 856.000 846.000 835.000 823.000 813.000 803.000 792.000 782.000 -9999.000 771.000 771.000 774.000 780.000 -9999.000 795.000 805.000 815.000 822.000 830.000 839.000 -9999.000 860.000 868.000 874.000 880.000 891.000 901.000 909.000 917.000 925.000 935.000 947.000 960.000 973.000 983.000 992.000 999.000 1002.000 1001.000 997.000 992.000 987.000 984.000 980.000 976.000 972.000 969.000 965.000 963.000 962.000 962.000 -9999.000 961.000 961.000 960.000 960.000 958.000 956.000 953.000 950.000 951.000 952.000 954.000 959.000 964.000 971.000 979.000 985.000 990.000 994.000 998.000 1004.000 1012.000 1020.000 1028.000 1034.000 1040.000 1044.000 1051.000 1057.000 1063.000 1069.000 1077.000 1082.000 1088.000 1093.000 1099.000 1105.000 1110.000 -9999.000 1121.000 1126.000 1132.000 1141.000 1149.000 1156.000 1161.000 1165.000 1170.000 1174.000 1180.000 1186.000 1190.000 1194.000 1201.000 1208.000 1217.000 1227.000 1233.000 1240.000 1247.000 1256.000 1262.000 -9999.000 1278.000 1288.000 1298.000 1306.000 1316.000 -9999.000 1331.000 -9999.000 1332.000 1326.000 1321.000 1315.000 1309.000 1301.000 1293.000 1290.000 1286.000 1280.000 1273.000 1269.000 1265.000 1261.000 1260.000 1259.000 1257.000 1256.000 1253.000 1246.000 1241.000 1232.000 1224.000 1216.000 1205.000 1193.000 1179.000 1166.000 1156.000 1147.000 1138.000 1129.000 1120.000 1112.000 1103.000 1094.000 1086.000 1079.000 1072.000 1065.000 1058.000 1050.000 1043.000 1038.000 1032.000 1027.000 1019.000 1012.000 1005.000 997.000 989.000 982.000 977.000 971.000 958.000 946.000 937.000 -9999.000 920.000 913.000 904.000 895.000 -9999.000 876.000 868.000 861.000 853.000 844.000 836.000 830.000 826.000 -9999.000 -9999.000 802.000 -9999.000 791.000 785.000 777.000 768.000 760.000 753.000 748.000 -9999.000 735.000 730.000 726.000 721.000 717.000 -9999.000 700.000 693.000 689.000 -9999.000 674.000 666.000 660.000 654.000 647.000 643.000 637.000 632.000 627.000 622.000 616.000 610.000 606.000
945.000 936.000 925.000 913.000 905.000 -9999.000 884.000 873.000 865.000 -9999.000 846.000 838.000 -9999.000 818.000 807.000 797.000 789.000 -9999.000 772.000 767.000 766.000 770.000 778.000 -9999.000 794.000 803.000 813.000 -9999.000 829.000 838.000 848.000 857.000 864.000 870.000 879.000 888.000 896.000 -9999.000 913.000 922.000 934.000 944.000 954.000 -9999.000 978.000 988.000 995.000 1000.000 -9999.000 995.000 989.000 983.000 978.000 974.000 969.000 964.000 961.000 957.000 953.000 950.000 949.000 951.000 952.000 953.000 953.000 951.000 949.000 947.000 -9999.000 -9999.000 945.000 948.000 -9999.000 957.000 -9999.000 971.000 978.000 985.000 993.000 998.000 1005.000 1010.000 1018.000 1025.000 1030.000 1034.000 1040.000 1045.000 -9999.000 1059.000 1065.000 1072.000 -9999.000 1084.000 1087.000 1092.000 1098.000 1104.000 1108.000 1112.000 1118.000 1123.000 1130.000 1138.000 1144.000 1150.000 1153.000 1157.000 1160.000 1165.000 1171.000 1178.000 1184.000 -9999.000 1198.000 1205.000 1213.000 1222.000 1230.000 1236.000 -9999.000 1253.000 1261.000 1267.000 1276.000 1283.000 1294.000 1302.000 1311.000 1319.000 1324.000 1325.000 1323.000 -9999.000 1310.000 1303.000 1296.000 1287.000 1282.000 1276.000 1270.000 1264.000 1257.000 1252.000 1247.000 1245.000 1245.000 1244.000 -9999.000 1243.000 1242.000 1241.000 1236.000 1230.000 1221.000 1211.000 1204.000 1194.000 -9999.000 -9999.000 1159.000 -9999.000 1143.000 1133.000 -9999.000 -9999.000 1106.000 1097.000 1089.000 1081.000 1074.000 1067.000 1059.000 1051.000 1043.000 1037.000 1032.000 1028.000 1022.000 1013.000 1005.000 997.000 989.000 983.000 979.000 971.000 960.000 948.000 937.000 -9999.000 918.000 910.000 902.000 893.000 885.000 -9999.000 870.000 865.000 859.000 851.000 842.000 836.000 831.000 825.000 815.000 806.000 800.000 795.000 789.000 781.000 773.000 766.000 759.000 751.000 745.000 739.000 734.000 729.000 724.000 719.000 712.000 704.000 696.000 690.000 685.000 677.000 669.000 663.000 659.000 655.000 -9999.000 642.000 635.000 630.000 625.000 620.000 615.000 609.000
931.000 920.000 910.000 900.000 890.000 881.000 871.000 861.000 853.000 -9999.000 837.000 828.000 818.000 809.000 801.000 794.000 786.000 778.000 770.000 765.000 -9999.000 770.000 778.000 785.000 793.000 802.000 811.000 820.000 830.000 840.000 848.000 855.000 860.000 868.000 877.000 -9999.000 891.000 899.000 909.000 922.000 933.000 940.000 949.000 961.000 972.000 980.000 989.000 995.000 996.000 990.000 983.000 977.000 972.000 -9999.000 963.000 959.000 955.000 951.000 945.000 942.000 941.000 942.000 943.000 944.000 944.000 940.000 936.000 -9999.000 935.000 937.000 943.000 949.000 954.000 960.000 966.000 973.000 981.000 989.000 997.000 1006.000 1014.000 1020.000 1026.000 1031.000 1035.000 1040.000 1044.000 1049.000 1054.000 1061.000 1069.000 1075.000 1081.000 -9999.000 1090.000 1093.000 1097.000 1100.000 1103.000 1107.000 1113.000 1119.000 1124.000 1130.000 1136.000 1142.000 1146.000 1150.000 1154.000 1160.000 1166.000 1173.000 1181.000 1189.000 1197.000 1205.000 1212.000 1219.000 1226.000 1232.000 1239.000 1249.000 1257.000 1265.000 1274.000 1282.000 1292.000 1302.000 1308.000 -9999.000 1316.000 1317.000 -9999.000 1307.000 1300.000 1293.000 1284.000 1276.000 1269.000 1262.000 1256.000 1249.000 -9999.000 1240.000 1233.000 -9999.000 1229.000 1228.000 1228.000 1228.000 -9999.000 1229.000 1229.000 1225.000 1218.000 1209.000 1201.000 1194.000 1186.000 -9999.000 1169.000 1158.000 1148.000 1138.000 1126.000 1115.000 -9999.000 1101.000 1093.000 1085.000 1077.000 1069.000 1062.000 1055.000 1047.000 1041.000 1035.000 1028.000 1020.000 1012.000 1003.000 997.000 991.000 986.000 980.000 972.000 -9999.000 951.000 940.000 -9999.000 921.000 912.000 903.000 892.000 884.000 878.000 872.000 866.000 860.000 852.000 845.000 837.000 834.000 829.000 819.000 810.000 803.000 797.000 791.000 785.000 778.000 770.000 762.000 755.000 746.000 -9999.000 736.000 -9999.000 726.000 721.000 715.000 707.000 -9999.000 693.000 685.000 678.000 671.000 668.000 664.000 659.000 653.000 -9999.000 637.000 632.000 628.000 -9999.000 615.000 610.000
919.000 910.000 -9999.000 881.000 873.000 865.000 858.000 851.000 843.000 833.000 826.000 -9999.000 812.000 803.000 794.000 787.000 782.000 775.000 -9999.000 765.000 767.000 771.000 777.000 785.000 793.000 801.000 811.000 821.000 831.000 -9999.000 847.000 852.000 860.000 867.000 -9999.000 883.000 -9999.000 897.000 906.000 917.000 927.000 936.000 947.000 959.000 969.000 977.000 983.000 987.000 987.000 984.000 979.000 973.000 965.000 960.000 -9999.000 953.000 947.000 941.000 937.000 936.000 935.000 935.000 934.000 934.000 931.000 926.000 924.000 926.000 930.000 936.000 944.000 951.000 958.000 965.000 972.000 979.000 986.000 994.000 1006.000 -9999.000 1021.000 -9999.000 1031.000 1037.000 1042.000 1046.000 1049.000 1052.000 1055.000 1061.000 1068.000 1075.000 1079.000 1085.000 1089.000 1093.000 1096.000 1098.000 1100.000 1103.000 1109.000 1115.000 1119.000 1122.000 1129.000 1136.000 1141.000 1147.000 1152.000 1158.000 -9999.000 1173.000 1181.000 1189.000 1197.000 1206.000 1212.000 1218.000 1226.000 1232.000 1239.000 1247.000 -9999.000 1262.000 1270.000 -9999.000 1287.000 1297.000 1304.000 1308.000 1309.000 1306.000 1301.000 1295.000 1288.000 1281.000 1273.000 1265.000 1257.000 1250.000 1245.000 1239.000 1235.000 1229.000 1223.000 1217.000 1213.000 1212.000 1211.000 1212.000 -9999.000 1216.000 1218.000 1217.000 1211.000 -9999.000 1199.000 -9999.000 1186.000 -9999.000 -9999.000 1158.000 1149.000 1137.000 1128.000 1119.000 1110.000 1102.000 1094.000 1086.000 1078.000 1071.000 1065.000 1058.000 1050.000 1044.000 1038.000 1030.000 1022.000 1016.000 1008.000 1000.000 994.000 988.000 981.000 975.000 964.000 952.000 942.000 934.000 926.000 915.000 904.000 892.000 881.000 -9999.000 872.000 -9999.000 858.000 852.000 845.000 839.000 834.000 829.000 821.000 -9999.000 807.000 802.000 795.000 789.000 782.000 775.000 767.000 757.000 749.000 -9999.000 737.000 733.000 728.000 723.000 716.000 708.000 702.000 696.000 688.000 678.000 673.000 671.000 -9999.000 664.000 657.000 649.000 642.000 634.000 628.000 622.000 615.000 610.000
902.000 890.000 -9999.000 867.000 859.000 852.000 -9999.000 837.000 829.000 -9999.000 -9999.000 813.000 805.000 797.000 -9999.000 784.000 777.000 770.000 -9999.000 765.000 768.000 772.000 777.000 -9999.000 793.000 802.000 811.000 822.000 831.000 837.000 844.000 852.000 -9999.000 862.000 872.000 880.000 888.000 894.000 -9999.000 907.000 922.000 932.000 942.000 954.000 965.000 973.000 -9999.000 980.000 980.000 977.000 971.000 966.000 958.000 951.000 948.000 945.000 937.000 933.000 928.000 924.000 926.000 925.000 924.000 923.000 920.000 918.000 917.000 922.000 931.000 937.000 943.000 951.000 959.000 968.000 977.000 986.000 994.000 1004.000 1013.000 1021.000 1026.000 1029.000 -9999.000 1039.000 1043.000 1046.000 1048.000 1050.000 1053.000 1057.000 1064.000 1069.000 1073.000 1078.000 1083.000 1088.000 1092.000 1094.000 1096.000 1099.000 -9999.000 1108.000 1112.000 1117.000 1123.000 1130.000 1137.000 1143.000 1150.000 1158.000 1166.000 1173.000 1182.000 1190.000 1198.000 1205.000 1212.000 1219.000 -9999.000 1234.000 -9999.000 1249.000 1255.000 1263.000 1269.000 1275.000 1282.000 1289.000 1296.000 1301.000 1302.000 1299.000 1295.000 -9999.000 1281.000 1273.000 1267.000 1259.000 1248.000 1241.000 1235.000 1230.000 1223.000 1218.000 1212.000 1204.000 1197.000 1196.000 1196.000 1198.000 1201.000 1204.000 1203.000 1201.000 1199.000 -9999.000 1192.000 1186.000 1177.000 1170.000 1163.000 1154.000 1146.000 1139.000 -9999.000 1122.000 1112.000 -9999.000 1095.000 1087.000 1081.000 1074.000 1067.000 -9999.000 1053.000 1046.000 1040.000 1034.000 1028.000 1022.000 1014.000 1005.000 998.000 990.000 983.000 975.000 968.000 960.000 949.000 939.000 929.000 916.000 902.000 890.000 882.000 875.000 869.000 -9999.000 860.000 854.000 847.000 839.000 834.000 -9999.000 821.000 813.000 807.000 802.000 -9999.000 790.000 782.000 775.000 768.000 759.000 -9999.000 746.000 741.000 -9999.000 730.000 722.000 715.000 708.000 703.000 698.000 690.000 683.000 680.000 -9999.000 -9999.000 663.000 658.000 652.000 644.000 637.000 630.000 622.000 617.000 611.000
882.000 871.000 859.000 853.000 849.000 841.000 -9999.000 826.000 821.000 815.000 811.000 808.000 803.000 -9999.000 785.000 779.000 771.000 765.000 762.000 763.000 767.000 773.000 779.000 786.000 794.000 803.000 815.000 -9999.000 -9999.000 836.000 844.000 850.000 853.000 858.000 866.000 875.000 882.000 888.000 894.000 903.000 915.000 928.000 -9999.000 946.000 955.000 965.000 969.000 970.000 970.000 967.000 961.000 956.000 949.000 943.000 938.000 933.000 929.000 922.000 918.000 915.000 914.000 913.000 912.000 912.000 912.000 912.000 915.000 923.000 932.000 -9999.000 945.000 955.000 963.000 971.000 982.000 991.000 999.000 -9999.000 1017.000 1024.000 1027.000 1030.000 1033.000 1037.000 1040.000 1043.000 1046.000 1049.000 1052.000 1056.000 1061.000 1066.000 1068.000 1071.000 1076.000 1081.000 1086.000 1089.000 1092.000 1095.000 1098.000 -9999.000 1107.000 1114.000 1121.000 1128.000 1135.000 1142.000 1149.000 1157.000 1167.000 1175.000 1183.000 1192.000 1198.000 -9999.000 1212.000 1217.000 1224.000 1232.000 1239.000 1245.000 1254.000 1261.000 1267.000 1273.000 1278.000 1283.000 1289.000 -9999.000 1295.000 1295.000 1289.000 1283.000 1278.000 1270.000 1262.000 1253.000 -9999.000 1234.000 1226.000 1220.000 1214.000 1206.000 1198.000 1189.000 1184.000 1183.000 1183.000 1183.000 1186.000 -9999.000 1187.000 1187.000 1187.000 1185.000 1182.000 1175.000 1168.000 1161.000 1154.000 1149.000 1143.000 1138.000 1133.000 1126.000 1114.000 1103.000 1094.000 1087.000 1082.000 1077.000 1070.000 1064.000 1057.000 1051.000 1044.000 1036.000 1031.000 1025.000 1020.000 1012.000 1001.000 991.000 982.000 973.000 966.000 958.000 -9999.000 939.000 928.000 914.000 902.000 894.000 -9999.000 874.000 867.000 863.000 860.000 856.000 849.000 841.000 835.000 830.000 823.000 815.000 807.000 -9999.000 794.000 787.000 -9999.000 775.000 767.000 759.000 754.000 -9999.000 741.000 734.000 729.000 723.000 716.000 711.000 705.000 700.000 693.000 688.000 684.000 678.000 670.000 663.000 656.000 653.000 648.000 639.000 632.000 625.000 618.000 612.000
868.000 860.000 853.000 -9999.000 836.000 828.000 821.000 815.000 810.000 806.000 802.000 -9999.000 792.000 785.000 -9999.000 772.000 766.000 761.000 760.000 762.000 768.000 -9999.000 780.000 -9999.000 797.000 806.000 815.000 823.000 830.000 837.000 843.000 848.000 -9999.000 857.000 866.000 873.000 878.000 885.000 892.000 900.000 911.000 923.000 932.000 941.000 -9999.000 951.000 956.000 -9999.000 957.000 954.000 949.000 945.000 940.000 933.000 927.000 923.000 918.000 -9999.000 908.000 -9999.000 903.000 902.000 902.000 902.000 905.000 910.000 -9999.000 929.000 938.000 945.000 -9999.000 960.000 968.000 976.000 985.000 993.000 1001.000 1009.000 1018.000 -9999.000 1026.000 1028.000 1032.000 1034.000 1036.000 1039.000 1043.000 1047.000 1051.000 1055.000 1058.000 1062.000 1063.000 1066.000 1070.000 -9999.000 1082.000 1087.000 1090.000 1094.000 1097.000 1102.000 1109.000 1116.000 1122.000 -9999.000 1136.000 1143.000 -9999.000 1160.000 1167.000 1175.000 1184.000 1191.000 1198.000 1205.000 1211.000 1215.000 1222.000 1230.000 1236.000 1242.000 1249.000 1257.000 1264.000 1269.000 1274.000 1281.000 1285.000 1288.000 1291.000 1290.000 1284.000 1277.000 1272.000 -9999.000 1255.000 1243.000 1232.000 1224.000 1219.000 1212.000 1205.000 1197.000 1188.000 -9999.000 -9999.000 1170.000 1169.000 1168.000 1168.000 1169.000 1168.000 1171.000 1170.000 1167.000 -9999.000 1161.000 -9999.000 1150.000 1143.000 1138.000 1134.000 -9999.000 1128.000 1122.000 1113.000 1103.000 1095.000 1088.000 1081.000 1075.000 1067.000 1062.000 1059.000 1054.000 -9999.000 1041.000 1034.000 1028.000 1022.000 1015.000 1004.000 991.000 980.000 970.000 963.000 -9999.000 948.000 938.000 929.000 916.000 904.000 894.000 884.000 873.000 -9999.000 861.000 859.000 855.000 849.000 840.000 834.000 829.000 823.000 817.000 808.000 800.000 793.000 786.000 781.000 775.000 766.000 758.000 752.000 746.000 740.000 734.000 728.000 723.000 715.000 707.000 704.000 -9999.000 696.000 691.000 687.000 682.000 673.000 666.000 659.000 654.000 649.000 643.000 636.000 628.000 620.000 613.000
857.000 852.000 844.000 -9999.000 824.000 813.000 808.000 803.000 -9999.000 797.000 791.000 785.000 781.000 775.000 768.000 762.000 757.000 756.000 758.000 762.000 -9999.000 776.000 783.000 -9999.000 800.000 809.000 816.000 821.000 828.000 836.000 843.000 847.000 851.000 858.000 865.000 870.000 875.000 880.000 889.000 896.000 906.000 916.000 927.000 935.000 941.000 943.000 945.000 946.000 945.000 942.000 939.000 935.000 930.000 922.000 915.000 -9999.000 906.000 901.000 897.000 895.000 893.000 894.000 896.000 900.000 906.000 914.000 923.000 935.000 946.000 954.000 960.000 966.000 972.000 981.000 989.000 995.000 1000.000 1007.000 1013.000 1018.000 1022.000 1025.000 1028.000 1028.000 1029.000 1034.000 1039.000 1044.000 1048.000 1051.000 -9999.000 1056.000 1058.000 1061.000 1067.000 1075.000 1082.000 1087.000 1091.000 1095.000 1100.000 1105.000 1111.000 -9999.000 1124.000 1132.000 1140.000 1147.000 1154.000 1161.000 1168.000 -9999.000 1182.000 1189.000 1196.000 1202.000 1208.000 1214.000 1219.000 1226.000 1232.000 1237.000 1246.000 1254.000 1260.000 1266.000 1272.000 1278.000 -9999.000 -9999.000 1285.000 1285.000 -9999.000 1274.000 1268.000 1261.000 -9999.000 1238.000 1226.000 1218.000 1213.000 1207.000 1199.000 1190.000 1182.000 1172.000 1165.000 1161.000 1155.000 1152.000 1154.000 1155.000 1155.000 -9999.000 1153.000 1151.000 1148.000 -9999.000 1143.000 1137.000 1131.000 1126.000 1122.000 1119.000 1117.000 -9999.000 1103.000 1095.000 1089.000 1085.000 1080.000 1072.000 -9999.000 1059.000 1057.000 1055.000 -9999.000 1044.000 1036.000 1031.000 1021.000 1012.000 1000.000 989.000 977.000 968.000 961.000 957.000 950.000 941.000 928.000 916.000 903.000 893.000 885.000 875.000 866.000 861.000 858.000 854.000 848.000 839.000 831.000 826.000 820.000 813.000 -9999.000 799.000 793.000 786.000 780.000 771.000 761.000 754.000 748.000 742.000 737.000 733.000 728.000 -9999.000 712.000 706.000 703.000 699.000 695.000 690.000 687.000 683.000 677.000 670.000 662.000 656.000 652.000 646.000 638.000 630.000 622.000 614.000
