ncols        238
nrows        86
xllcorner    -71.6768055556
yllcorner    6734.09125
cellsize 30
991 998 1004 1008 1012 1016 1021 1029 1034 1038 1042 1046 1054 1054 1050 1052 1053 1040 1028 1017 1009 1001 994 988 983 979 976 971 964 956 950 944 941 939 937 934 929 924 922 921 920 919 918 919 921 924 928 933 936 938 941 944 949 955 960 964 968 970 973 976 979 981 984 987 989 992 997 1002 1007 1015 1023 1037 1052 1063 1072 1080 1087 1095 1103 1109 1113 1115 1117 1120 1124 1129 1136 1140 1144 1150 1157 1169 1181 1190 1196 1201 1203 1202 1199 1195 1192 1189 1187 1185 1184 1182 1179 1175 1170 1164 1159 1156 1153 1151 1148 1146 1144 1140 1136 1133 1129 1127 1127 1126 1123 1118 1114 1110 1106 1101 1096 1088 1081 1072 1069 1073 1083 1095 1108 1119 1130 1144 1157 1164 1171 1181 1190 1198 1205 1208 1210 1209 1208 1207 1204 1198 1191 1184 1177 1173 1168 1161 1152 1144 1136 1125 1114 1104 1094 1086 1080 1075 1074 1075 1078 1080 1082 1085 1085 1082 1077 1072 1064 1054 1045 1034 1025 1020 1015 1007 997 986 970 951 940 931 919 910 902 892 877 864 855 848 842 836 826 814 803 793 784 774 764 755 750 743 739 737 737 736 734 735 738 743 747 745 743 743 742 740 737 732 731 729 726 723 720 719
991 998 1002 1005 1009 1013 1017 1023 1029 1029 1027 1029 1032 1033 1032 1029 1025 1022 1014 1006 999 996 990 980 974 973 969 961 953 945 937 934 934 931 929 927 924 922 921 920 920 918 917 918 919 921 925 929 932 936 939 942 946 951 954 958 962 964 967 971 975 978 981 984 987 990 995 1002 1007 1011 1018 1026 1039 1052 1062 1070 1078 1086 1095 1104 1108 1111 1113 1116 1121 1125 1129 1133 1139 1146 1157 1169 1183 1194 1201 1206 1208 1208 1208 1206 1205 1201 1198 1195 1193 1192 1189 1185 1181 1176 1173 1171 1167 1163 1160 1159 1156 1152 1148 1146 1143 1142 1142 1139 1136 1133 1127 1122 1118 1113 1108 1102 1093 1086 1081 1084 1094 1107 1116 1125 1135 1149 1160 1168 1176 1186 1195 1203 1210 1214 1215 1215 1214 1213 1211 1206 1200 1194 1185 1176 1170 1163 1157 1151 1140 1129 1118 1107 1096 1086 1079 1074 1074 1075 1077 1079 1081 1082 1083 1079 1074 1066 1057 1048 1038 1030 1023 1016 1009 999 990 983 973 956 941 930 920 910 898 884 872 862 853 845 838 829 818 807 798 789 778 768 758 751 746 743 739 738 740 742 744 746 749 753 754 753 751 748 748 747 745 741 737 736 733 730 728 726
990 998 1005 1008 1010 1012 1015 1019 1022 1022 1021 1019 1020 1020 1018 1016 1012 1007 1000 995 993 990 986 979 969 965 962 955 945 938 933 931 929 926 923 920 918 916 916 917 917 917 917 917 918 918 920 924 929 932 935 939 943 945 948 950 954 958 963 968 972 977 980 983 986 990 995 1000 1004 1008 1014 1022 1031 1040 1050 1059 1066 1076 1085 1094 1102 1107 1110 1114 1117 1120 1124 1127 1133 1144 1160 1173 1190 1200 1208 1213 1216 1216 1215 1215 1215 1214 1212 1210 1207 1203 1201 1199 1195 1190 1187 1181 1177 1174 1172 1169 1168 1166 1162 1158 1156 1154 1152 1149 1145 1144 1141 1136 1130 1125 1119 1113 1107 1100 1094 1095 1102 1111 1120 1129 1140 1152 1164 1172 1180 1189 1198 1206 1213 1217 1220 1221 1220 1218 1216 1214 1209 1202 1190 1179 1172 1167 1160 1154 1145 1133 1121 1111 1100 1090 1081 1075 1073 1074 1075 1077 1079 1080 1079 1075 1070 1062 1052 1041 1032 1026 1019 1010 1001 990 983 977 966 954 942 929 915 902 890 880 870 860 851 841 830 818 808 802 793 781 771 765 759 751 748 746 744 744 747 751 754 755 757 761 763 760 756 753 752 752 750 747 744 742 741 738 735 732
987 996 1003 1007 1008 1010 1014 1018 1019 1019 1015 1011 1009 1006 1006 1005 1002 998 990 986 987 985 980 973 965 958 951 946 941 935 931 927 923 917 914 913 911 911 913 914 914 914 914 915 916 916 916 919 923 926 929 932 936 941 944 947 951 957 962 966 970 975 978 981 983 986 992 996 999 1003 1009 1017 1025 1034 1043 1051 1060 1069 1079 1086 1094 1101 1106 1110 1113 1117 1121 1124 1128 1135 1150 1177 1194 1207 1215 1220 1224 1226 1226 1227 1225 1223 1223 1223 1220 1215 1212 1211 1210 1205 1200 1196 1189 1186 1185 1182 1180 1177 1174 1169 1165 1162 1161 1158 1156 1154 1152 1147 1143 1137 1133 1129 1123 1114 1109 1107 1109 1116 1125 1136 1147 1158 1167 1176 1184 1192 1200 1209 1216 1223 1227 1227 1224 1222 1221 1219 1214 1205 1195 1185 1178 1172 1166 1155 1143 1133 1126 1112 1098 1090 1082 1076 1073 1071 1071 1072 1074 1075 1073 1070 1066 1060 1051 1042 1031 1022 1016 1009 998 986 977 968 959 948 937 925 911 899 890 879 869 859 847 835 824 813 803 795 784 773 765 759 756 755 754 753 752 753 754 757 760 762 765 767 767 765 761 759 758 759 756 753 749 747 747 746 744 741
986 993 1000 1004 1006 1009 1012 1015 1019 1019 1015 1011 1006 1001 997 997 995 990 985 981 978 977 972 965 957 949 944 938 933 929 927 923 917 912 908 907 907 909 911 913 913 912 911 912 913 914 915 915 918 922 925 927 931 936 943 947 951 956 959 962 967 972 976 978 979 982 986 991 994 998 1005 1013 1020 1030 1038 1046 1056 1066 1075 1083 1090 1095 1102 1106 1111 1116 1119 1121 1125 1131 1148 1174 1194 1207 1217 1224 1230 1233 1234 1233 1233 1230 1232 1232 1229 1226 1223 1223 1222 1219 1216 1212 1209 1205 1203 1196 1190 1187 1184 1180 1175 1172 1170 1168 1167 1164 1162 1158 1155 1154 1148 1143 1138 1131 1125 1121 1123 1127 1135 1146 1157 1165 1173 1182 1190 1198 1206 1214 1222 1230 1234 1234 1230 1227 1225 1223 1219 1212 1202 1193 1182 1172 1162 1155 1146 1134 1122 1109 1098 1088 1082 1076 1071 1067 1066 1067 1067 1067 1066 1064 1060 1054 1048 1039 1028 1019 1012 1005 997 985 972 960 950 939 929 916 906 898 889 878 867 857 846 834 821 808 796 787 779 770 761 757 756 757 760 761 759 759 761 764 767 770 771 772 772 771 769 768 766 765 763 758 753 751 751 752 753 753
983 989 995 1000 1004 1008 1011 1013 1016 1017 1015 1008 1001 997 993 989 987 984 979 974 971 969 965 962 955 947 939 932 926 923 918 913 910 907 904 903 904 907 910 911 912 911 911 911 912 913 914 915 916 919 922 926 929 936 942 947 951 954 955 958 963 968 972 975 976 978 982 985 990 995 1001 1010 1018 1027 1034 1042 1054 1065 1074 1083 1091 1097 1102 1107 1111 1114 1117 1119 1123 1129 1146 1170 1190 1203 1214 1223 1231 1235 1237 1238 1238 1238 1239 1239 1241 1239 1237 1235 1233 1232 1230 1228 1224 1222 1216 1211 1205 1200 1195 1191 1186 1182 1181 1178 1175 1173 1170 1168 1165 1163 1161 1155 1149 1143 1137 1135 1135 1140 1147 1157 1167 1174 1182 1191 1197 1204 1212 1220 1228 1235 1239 1239 1236 1232 1229 1227 1224 1217 1209 1199 1185 1169 1161 1153 1142 1131 1120 1109 1100 1091 1082 1075 1070 1066 1062 1060 1060 1059 1058 1054 1050 1044 1037 1029 1020 1011 1003 998 991 981 969 957 947 936 926 918 909 900 887 873 863 852 841 833 819 803 792 782 773 765 761 759 762 765 767 768 768 769 771 773 774 776 778 778 777 777 778 778 777 773 771 767 763 759 760 763 765 767
982 988 994 998 1003 1007 1010 1013 1014 1015 1009 1001 997 994 991 987 983 979 974 970 966 964 961 955 947 941 935 928 922 916 911 905 901 899 898 900 902 905 907 909 909 910 910 912 914 915 916 918 919 920 923 927 931 937 943 947 950 952 954 957 962 966 971 973 975 978 979 983 989 994 1002 1008 1017 1025 1031 1041 1054 1064 1071 1080 1090 1099 1106 1110 1113 1115 1116 1117 1119 1125 1137 1160 1181 1196 1209 1221 1230 1236 1239 1243 1245 1246 1245 1246 1248 1250 1248 1248 1246 1244 1244 1242 1238 1234 1230 1224 1220 1214 1209 1203 1200 1195 1192 1190 1187 1185 1182 1179 1176 1174 1169 1166 1160 1156 1152 1148 1149 1152 1158 1164 1172 1179 1187 1195 1202 1209 1218 1226 1233 1239 1244 1246 1244 1239 1236 1233 1228 1220 1211 1201 1186 1172 1162 1154 1144 1132 1120 1110 1102 1093 1086 1079 1073 1067 1060 1057 1055 1054 1051 1047 1041 1034 1027 1021 1012 1001 993 988 982 975 964 954 945 934 923 914 907 895 880 866 855 845 834 819 804 793 784 778 773 768 766 767 769 771 773 775 777 778 778 779 781 783 786 786 784 785 787 788 788 786 783 783 780 777 775 774 776 779
982 988 992 997 1002 1006 1008 1010 1010 1009 1005 998 993 990 987 984 982 978 969 963 961 958 950 942 936 931 928 924 917 912 905 899 897 897 898 899 900 902 904 906 908 910 912 914 916 918 919 921 922 923 925 929 933 937 941 945 948 951 954 958 964 969 971 973 976 978 980 985 992 1000 1005 1010 1016 1023 1030 1039 1051 1062 1071 1079 1089 1099 1106 1112 1115 1116 1115 1115 1117 1121 1131 1149 1170 1188 1202 1213 1225 1235 1241 1246 1249 1250 1250 1251 1255 1258 1256 1258 1258 1258 1256 1254 1250 1245 1241 1237 1234 1230 1224 1217 1212 1207 1203 1200 1199 1197 1194 1192 1190 1188 1183 1179 1174 1168 1165 1162 1162 1165 1170 1175 1180 1186 1192 1199 1207 1215 1223 1231 1237 1244 1250 1252 1250 1247 1240 1234 1226 1217 1210 1198 1185 1174 1166 1158 1147 1134 1120 1110 1103 1095 1087 1083 1078 1070 1063 1056 1053 1050 1045 1039 1033 1025 1018 1013 1004 995 987 981 974 966 957 948 939 928 918 909 900 887 868 856 848 839 828 812 799 789 781 778 774 772 771 772 774 776 779 780 782 784 785 787 790 792 794 796 797 798 801 802 802 801 800 800 797 795 793 791 790 792
983 986 990 995 1001 1005 1006 1004 1002 1000 998 993 988 984 981 979 975 970 963 956 954 952 944 936 928 921 919 916 911 905 902 898 897 898 898 899 900 901 903 905 907 909 910 913 915 917 919 921 923 924 926 929 932 935 938 942 947 950 952 958 964 969 971 973 977 980 983 989 996 1002 1009 1014 1020 1026 1032 1039 1049 1061 1072 1082 1090 1097 1103 1108 1114 1115 1113 1113 1114 1120 1129 1145 1163 1180 1192 1203 1216 1227 1238 1244 1247 1248 1252 1255 1258 1261 1262 1264 1266 1267 1265 1262 1258 1254 1251 1248 1245 1243 1237 1231 1226 1219 1215 1212 1210 1206 1204 1201 1199 1197 1194 1190 1188 1183 1178 1176 1175 1177 1179 1184 1190 1196 1202 1210 1217 1224 1231 1238 1244 1251 1255 1256 1255 1250 1245 1237 1226 1215 1206 1199 1191 1180 1171 1161 1148 1135 1125 1114 1106 1099 1092 1085 1080 1074 1065 1057 1052 1046 1040 1033 1026 1020 1012 1004 996 988 980 974 969 959 951 943 932 921 910 900 888 873 862 853 844 835 823 810 800 790 785 780 777 776 778 780 783 786 786 788 789 791 795 798 801 804 805 806 809 812 813 815 816 816 815 814 813 810 809 809 810 811
982 986 990 995 1000 1001 1000 996 993 993 990 985 981 977 975 972 968 963 955 950 947 943 935 928 920 915 911 909 906 901 897 896 896 897 897 897 898 900 903 906 907 906 907 909 912 915 917 920 922 924 927 931 935 938 940 943 946 948 951 956 962 966 969 972 977 982 986 992 998 1003 1010 1015 1020 1027 1032 1040 1049 1060 1072 1081 1089 1095 1100 1105 1110 1110 1111 1111 1113 1117 1127 1139 1153 1170 1186 1198 1209 1220 1230 1239 1242 1245 1250 1256 1261 1264 1267 1269 1272 1274 1273 1269 1266 1263 1260 1258 1255 1252 1249 1245 1240 1234 1229 1224 1221 1218 1214 1209 1207 1205 1204 1201 1198 1196 1194 1192 1191 1189 1189 1194 1200 1207 1213 1219 1224 1230 1237 1244 1251 1257 1262 1262 1260 1254 1248 1241 1231 1219 1209 1200 1193 1185 1173 1160 1150 1139 1126 1113 1106 1099 1095 1088 1080 1073 1065 1057 1049 1042 1035 1028 1021 1016 1010 1002 994 987 979 973 966 958 950 942 932 919 908 897 885 870 856 843 833 827 818 809 802 794 788 784 781 780 784 788 792 795 796 794 795 798 803 808 812 814 816 820 823 825 827 830 832 831 829 828 825 825 824 822 823 825
978 983 987 990 992 992 988 985 983 980 979 977 975 970 963 960 958 952 946 941 937 934 929 922 916 911 908 904 900 896 894 895 896 897 896 896 897 899 902 904 905 904 905 907 910 912 915 918 922 925 929 935 940 943 945 947 948 950 952 955 960 963 967 971 976 981 986 993 999 1003 1007 1012 1019 1025 1033 1042 1051 1060 1070 1079 1086 1093 1097 1102 1104 1106 1108 1109 1112 1117 1125 1135 1146 1161 1178 1193 1205 1216 1225 1231 1238 1243 1250 1256 1261 1268 1272 1276 1279 1281 1282 1279 1275 1272 1270 1266 1263 1260 1257 1255 1251 1247 1241 1235 1231 1227 1225 1221 1219 1216 1214 1213 1209 1206 1205 1203 1202 1200 1202 1206 1211 1216 1220 1225 1229 1236 1244 1251 1257 1263 1268 1269 1266 1260 1254 1246 1236 1224 1211 1202 1195 1183 1172 1162 1153 1140 1126 1116 1107 1101 1096 1089 1080 1072 1064 1056 1048 1041 1033 1025 1020 1016 1010 1004 998 991 982 974 967 959 950 940 930 918 905 894 882 865 848 839 832 824 816 808 800 793 787 783 780 782 786 792 797 800 800 800 801 804 810 814 819 823 826 831 836 839 842 846 847 848 846 842 840 838 837 836 835 839
974 979 980 981 981 980 978 976 973 970 967 966 964 959 957 953 949 943 938 934 930 927 920 914 911 910 904 899 895 894 894 894 894 895 895 895 895 896 899 901 902 902 905 909 911 913 915 918 923 929 933 938 943 947 949 951 953 955 957 959 961 964 965 967 972 978 983 989 995 1001 1007 1014 1021 1028 1036 1045 1053 1060 1068 1078 1085 1090 1094 1097 1100 1102 1105 1108 1111 1118 1127 1138 1149 1163 1180 1194 1205 1214 1223 1230 1236 1244 1251 1257 1263 1270 1277 1283 1287 1291 1291 1288 1284 1280 1276 1274 1272 1269 1266 1264 1261 1258 1253 1249 1243 1239 1237 1234 1232 1228 1225 1222 1221 1219 1217 1216 1214 1213 1214 1217 1221 1224 1228 1233 1240 1244 1252 1258 1264 1269 1272 1274 1272 1267 1259 1250 1241 1228 1215 1205 1197 1185 1174 1165 1157 1146 1134 1125 1117 1109 1102 1093 1084 1074 1067 1059 1051 1045 1037 1030 1023 1018 1011 1005 1000 992 982 974 967 960 952 943 931 920 913 900 883 869 856 843 833 826 818 810 801 793 787 784 782 784 788 796 801 804 805 808 812 814 820 824 828 833 837 841 847 851 855 859 861 862 861 860 858 856 855 854 853 858
969 971 972 971 971 970 969 968 966 964 962 958 955 953 952 950 945 938 932 926 921 916 912 907 905 905 902 896 892 892 893 893 892 892 893 893 893 895 897 899 899 899 903 907 909 912 916 920 926 931 935 940 944 948 951 953 956 959 963 965 965 966 967 968 971 977 983 989 995 1001 1008 1015 1024 1031 1039 1046 1053 1061 1069 1077 1084 1088 1090 1095 1098 1101 1104 1107 1111 1118 1129 1142 1157 1169 1184 1199 1209 1217 1226 1232 1240 1247 1254 1259 1265 1272 1279 1286 1293 1298 1299 1296 1292 1289 1285 1283 1282 1280 1277 1274 1270 1267 1263 1260 1256 1252 1248 1246 1243 1240 1237 1235 1233 1232 1231 1229 1227 1226 1226 1229 1231 1233 1237 1242 1247 1253 1259 1265 1271 1274 1277 1278 1276 1271 1263 1254 1243 1232 1221 1210 1201 1191 1179 1167 1160 1153 1144 1135 1127 1120 1111 1103 1092 1082 1072 1063 1055 1049 1044 1036 1026 1018 1012 1006 1000 989 978 971 966 959 951 941 932 925 914 900 886 872 859 845 836 828 818 809 802 795 790 786 786 788 794 802 807 811 814 819 822 825 828 832 837 843 849 853 859 864 868 872 875 877 877 876 876 876 876 874 875 875
960 962 964 965 965 964 962 961 959 958 957 953 947 944 943 941 937 930 923 916 911 907 903 904 903 902 900 894 890 890 890 890 891 891 892 894 895 896 899 901 901 902 904 906 908 912 918 924 931 935 938 942 945 948 952 955 958 962 966 968 969 970 972 973 976 980 985 990 997 1003 1008 1015 1022 1029 1038 1047 1055 1062 1069 1075 1081 1085 1087 1091 1097 1101 1104 1108 1114 1120 1133 1153 1168 1176 1188 1201 1211 1221 1227 1234 1242 1250 1257 1262 1267 1273 1280 1288 1296 1301 1305 1304 1301 1298 1295 1295 1294 1291 1288 1286 1283 1280 1276 1274 1269 1264 1259 1256 1254 1252 1249 1247 1243 1241 1240 1239 1238 1237 1238 1240 1241 1243 1248 1253 1260 1264 1266 1270 1274 1279 1281 1283 1281 1277 1270 1260 1249 1237 1226 1217 1207 1197 1186 1175 1166 1158 1151 1141 1130 1121 1117 1109 1101 1091 1081 1070 1061 1054 1047 1037 1029 1018 1010 1007 1000 989 978 971 965 958 950 940 930 918 907 893 877 867 858 851 843 833 823 812 804 798 793 791 793 797 803 809 815 816 820 825 829 832 837 841 846 852 859 866 875 884 889 892 893 893 893 894 893 890 891 892 891 890
955 957 960 961 961 960 957 955 954 952 950 945 939 934 929 927 923 918 912 908 904 901 900 899 899 897 894 891 887 887 887 888 888 889 892 896 898 900 902 903 906 908 911 911 912 916 921 928 935 939 942 945 947 950 953 957 961 964 967 969 972 975 977 979 981 984 988 992 997 1001 1007 1012 1019 1027 1035 1045 1055 1063 1069 1075 1080 1085 1088 1092 1097 1100 1104 1108 1115 1125 1139 1155 1167 1179 1191 1202 1213 1221 1229 1237 1245 1253 1260 1264 1269 1275 1283 1289 1297 1304 1307 1309 1309 1308 1309 1307 1303 1300 1297 1295 1293 1290 1287 1284 1281 1278 1274 1269 1265 1263 1260 1256 1253 1249 1247 1246 1245 1245 1247 1248 1250 1252 1258 1264 1268 1271 1273 1277 1282 1284 1288 1289 1286 1282 1276 1268 1257 1245 1233 1224 1216 1207 1196 1185 1172 1162 1152 1140 1129 1122 1116 1110 1104 1096 1086 1074 1064 1056 1050 1043 1030 1019 1012 1005 1000 992 983 973 963 954 945 935 924 913 904 892 878 865 855 847 840 830 821 813 805 798 793 795 799 803 809 816 821 824 829 833 838 843 847 851 857 865 874 884 894 901 909 912 910 908 908 908 906 903 899 899 902 906
952 954 955 956 954 954 952 950 948 945 942 937 933 928 920 913 911 908 904 900 898 896 895 894 892 891 888 886 884 885 886 887 889 890 894 899 902 904 905 907 908 912 916 918 920 924 929 933 938 942 944 947 949 951 956 961 966 969 971 973 976 979 982 984 986 992 995 1000 1000 1003 1005 1011 1016 1023 1031 1041 1052 1061 1070 1076 1082 1086 1089 1092 1095 1099 1103 1108 1116 1127 1139 1152 1165 1178 1190 1201 1212 1222 1230 1238 1246 1255 1263 1269 1272 1277 1283 1288 1295 1303 1309 1311 1314 1316 1316 1315 1311 1307 1305 1303 1301 1300 1297 1293 1290 1289 1287 1281 1276 1272 1268 1264 1259 1258 1257 1255 1254 1254 1256 1258 1260 1262 1265 1270 1273 1275 1279 1281 1285 1290 1291 1292 1289 1285 1280 1272 1263 1251 1238 1230 1222 1212 1203 1192 1180 1165 1155 1146 1137 1128 1120 1113 1107 1100 1093 1082 1069 1060 1053 1045 1037 1028 1018 1008 999 992 983 973 960 947 939 931 922 913 901 890 878 866 853 842 836 827 818 811 805 800 797 800 806 811 815 821 828 833 836 841 846 851 857 865 873 881 891 902 911 917 919 921 923 923 922 921 919 912 906 910 913 916
949 949 949 948 947 945 944 943 940 934 931 929 924 918 911 907 904 900 896 892 891 890 889 886 884 884 882 881 882 884 887 889 891 894 900 905 906 906 909 911 912 914 918 922 927 932 937 940 944 947 950 951 952 953 957 965 972 974 976 978 981 984 986 989 993 998 1004 1009 1013 1015 1019 1018 1021 1025 1032 1037 1047 1056 1065 1074 1081 1087 1089 1091 1093 1096 1101 1106 1116 1127 1139 1151 1163 1178 1191 1201 1210 1221 1231 1239 1248 1258 1266 1270 1275 1278 1281 1285 1291 1302 1310 1316 1320 1321 1322 1320 1319 1318 1316 1314 1314 1313 1312 1307 1302 1298 1295 1291 1285 1281 1277 1273 1270 1267 1266 1265 1264 1265 1266 1266 1267 1269 1272 1275 1278 1281 1283 1286 1288 1291 1293 1292 1290 1287 1281 1273 1263 1250 1240 1231 1222 1213 1207 1201 1185 1170 1161 1153 1146 1139 1129 1120 1114 1107 1099 1089 1078 1066 1055 1047 1041 1033 1022 1011 1000 988 980 969 955 943 934 928 919 910 899 887 875 863 851 842 833 825 817 810 806 802 804 809 817 823 827 832 836 842 846 850 857 864 871 879 887 896 905 916 926 931 934 935 938 941 943 939 935 930 929 929 931 930
944 943 943 944 941 939 938 934 927 921 917 913 908 904 901 898 895 892 889 886 884 883 882 880 878 877 876 877 881 885 889 894 897 901 904 906 907 908 911 915 917 921 925 928 933 938 943 948 952 955 956 957 958 959 962 967 974 979 982 985 987 988 991 994 999 1004 1010 1018 1026 1033 1039 1042 1042 1040 1039 1041 1046 1052 1059 1068 1079 1086 1089 1092 1094 1097 1100 1104 1112 1125 1139 1149 1160 1172 1188 1201 1212 1221 1231 1241 1251 1260 1266 1270 1274 1277 1280 1286 1293 1304 1312 1320 1327 1330 1330 1331 1331 1330 1329 1327 1325 1325 1325 1321 1315 1309 1306 1302 1298 1294 1289 1284 1280 1278 1276 1273 1272 1273 1274 1274 1274 1275 1278 1282 1286 1289 1291 1292 1294 1294 1294 1293 1290 1287 1282 1275 1266 1257 1247 1237 1226 1218 1213 1203 1191 1178 1166 1156 1147 1138 1128 1120 1114 1107 1100 1091 1082 1071 1060 1049 1039 1029 1017 1006 995 985 976 966 956 945 937 927 917 907 897 887 876 866 855 845 836 828 819 814 809 807 809 816 824 831 835 840 845 850 855 862 871 878 885 892 900 909 917 926 935 943 949 953 957 961 963 963 958 952 945 941 935 930
940 940 938 936 935 932 930 924 918 911 908 903 897 892 889 887 885 885 883 881 878 876 875 874 874 874 875 877 883 887 890 896 903 906 907 908 909 911 916 921 925 930 934 940 943 947 952 955 959 960 961 961 962 964 965 969 975 982 988 991 993 994 997 1001 1004 1008 1014 1024 1036 1045 1054 1060 1061 1060 1055 1049 1048 1053 1058 1068 1077 1085 1089 1093 1095 1097 1100 1103 1108 1120 1132 1145 1156 1167 1184 1201 1211 1221 1231 1243 1253 1261 1266 1270 1273 1276 1281 1287 1296 1305 1312 1321 1330 1336 1339 1341 1341 1341 1340 1339 1336 1335 1332 1328 1324 1321 1317 1313 1309 1304 1300 1294 1291 1288 1285 1283 1282 1282 1282 1283 1282 1283 1287 1289 1291 1293 1295 1297 1299 1299 1298 1295 1291 1286 1282 1276 1269 1260 1251 1242 1233 1225 1218 1207 1196 1182 1168 1156 1146 1137 1126 1115 1109 1104 1099 1093 1081 1068 1058 1047 1036 1026 1012 1000 990 981 974 966 958 949 938 927 914 903 895 886 876 866 854 844 835 829 824 819 815 815 818 825 832 836 842 847 854 857 862 870 879 888 895 906 916 926 932 938 948 960 969 972 973 970 968 968 967 960 950 938 924 911
937 936 933 929 925 922 919 915 910 903 899 895 891 886 883 880 880 879 875 872 871 871 870 871 872 874 876 881 886 890 894 899 904 908 911 913 916 919 923 929 934 939 941 946 950 953 957 960 963 964 963 963 964 965 968 970 974 980 986 991 994 998 1001 1004 1008 1013 1020 1031 1042 1052 1063 1069 1074 1074 1071 1065 1061 1061 1066 1072 1079 1083 1088 1091 1094 1097 1101 1104 1108 1117 1131 1145 1157 1168 1184 1201 1211 1220 1232 1243 1256 1263 1267 1269 1271 1277 1284 1291 1297 1304 1311 1321 1332 1341 1347 1349 1351 1352 1351 1349 1345 1342 1339 1334 1331 1326 1322 1318 1314 1311 1307 1305 1302 1299 1297 1293 1291 1290 1291 1292 1292 1292 1294 1295 1296 1297 1300 1303 1304 1304 1302 1299 1294 1288 1280 1274 1267 1260 1251 1242 1234 1227 1219 1209 1196 1186 1172 1159 1149 1138 1128 1117 1108 1103 1099 1091 1077 1065 1054 1045 1034 1018 1003 994 987 979 972 964 954 945 936 922 909 899 891 884 875 863 852 842 834 828 824 820 822 823 828 832 837 843 848 854 861 867 873 881 891 898 904 914 929 940 949 960 972 979 986 986 985 981 977 970 964 953 943 923 903 894
930 929 926 922 916 911 907 903 898 894 888 884 880 877 876 874 872 870 868 866 867 867 871 871 874 876 880 885 889 894 899 903 906 908 911 915 920 926 930 936 941 946 950 954 957 958 960 963 964 965 964 963 963 964 966 969 972 976 983 990 995 1000 1004 1008 1013 1021 1027 1036 1047 1058 1067 1073 1079 1083 1085 1085 1081 1080 1080 1081 1084 1085 1086 1089 1094 1099 1103 1107 1112 1120 1132 1147 1160 1169 1181 1197 1212 1222 1233 1247 1257 1265 1268 1269 1272 1277 1285 1291 1297 1304 1312 1324 1337 1349 1357 1361 1363 1363 1361 1359 1355 1351 1349 1346 1339 1334 1328 1324 1320 1317 1315 1313 1310 1308 1306 1303 1301 1301 1302 1302 1301 1302 1303 1301 1300 1302 1304 1306 1307 1306 1305 1303 1298 1291 1283 1274 1267 1259 1249 1239 1232 1224 1213 1202 1193 1184 1172 1159 1146 1135 1124 1114 1106 1100 1095 1086 1077 1067 1056 1044 1030 1018 1006 995 986 978 969 959 949 937 925 917 908 898 890 882 871 860 850 843 836 829 825 825 826 828 833 838 844 851 857 864 871 878 885 894 903 910 918 929 944 957 965 973 982 988 991 992 991 988 986 975 954 932 905 884 876 873
922 918 916 912 907 902 895 890 886 882 879 874 869 868 867 864 862 861 861 861 863 866 869 874 877 880 884 888 893 899 905 910 911 912 914 920 925 930 937 942 948 953 957 960 962 962 962 963 963 963 964 964 964 964 966 969 973 977 983 991 998 1004 1007 1012 1017 1023 1029 1038 1049 1060 1068 1073 1080 1087 1093 1097 1096 1095 1093 1092 1091 1091 1090 1091 1095 1100 1106 1111 1119 1126 1136 1149 1161 1171 1183 1198 1212 1225 1236 1247 1257 1265 1269 1270 1272 1276 1282 1289 1298 1307 1318 1330 1344 1356 1364 1370 1375 1375 1373 1369 1365 1362 1359 1354 1350 1343 1339 1335 1331 1327 1323 1319 1316 1314 1312 1311 1310 1309 1309 1310 1310 1310 1308 1306 1305 1306 1307 1307 1307 1306 1305 1304 1298 1289 1280 1274 1269 1259 1247 1236 1226 1217 1207 1198 1190 1180 1167 1153 1141 1126 1114 1106 1100 1096 1090 1081 1073 1064 1052 1038 1028 1019 1007 995 983 971 963 953 945 936 925 916 908 898 887 878 869 858 849 842 836 833 831 831 832 834 839 845 851 858 866 873 879 886 895 904 914 924 937 952 963 973 980 987 991 995 994 994 988 981 965 947 925 897 867 847 839 844
909 904 899 897 896 892 887 883 878 874 870 867 865 862 858 856 855 855 857 859 861 864 869 874 879 884 889 894 899 905 911 914 917 919 923 927 932 937 942 946 951 956 958 960 961 963 963 963 963 963 963 964 964 966 968 972 977 981 984 991 999 1004 1009 1014 1018 1023 1029 1038 1049 1058 1064 1070 1077 1085 1092 1097 1101 1102 1103 1101 1101 1100 1098 1097 1099 1103 1108 1115 1123 1131 1141 1155 1167 1177 1191 1203 1214 1224 1238 1247 1254 1262 1268 1269 1271 1273 1279 1289 1303 1316 1326 1338 1351 1362 1370 1375 1382 1386 1385 1382 1380 1373 1368 1363 1358 1355 1352 1349 1346 1342 1335 1330 1325 1321 1320 1317 1316 1316 1316 1317 1317 1318 1316 1313 1312 1311 1309 1308 1306 1304 1302 1300 1295 1288 1279 1273 1267 1258 1248 1236 1227 1217 1206 1196 1187 1176 1163 1150 1136 1123 1108 1098 1096 1092 1084 1075 1066 1055 1046 1038 1025 1014 1003 990 978 968 959 951 943 934 924 913 903 892 881 873 864 854 845 839 836 836 838 839 841 846 851 859 866 871 877 881 887 895 903 913 924 934 947 961 974 984 991 997 1001 999 995 992 982 959 933 912 894 874 854 834 822 820
895 890 888 885 883 880 877 874 871 867 865 861 856 854 852 850 851 853 858 861 863 865 870 877 885 891 897 901 907 913 917 920 923 926 930 933 936 941 945 950 953 957 958 960 962 964 964 964 964 964 964 965 965 967 968 973 977 982 986 992 1000 1005 1011 1017 1022 1026 1031 1037 1046 1053 1058 1064 1071 1079 1086 1092 1097 1102 1105 1108 1109 1108 1107 1108 1109 1114 1116 1120 1126 1135 1149 1164 1171 1181 1191 1204 1215 1225 1236 1246 1253 1260 1266 1269 1271 1276 1283 1294 1309 1323 1333 1344 1357 1366 1376 1386 1390 1393 1395 1392 1388 1384 1378 1373 1369 1365 1362 1358 1354 1350 1345 1340 1337 1334 1332 1329 1327 1324 1324 1323 1322 1322 1321 1320 1318 1316 1314 1310 1306 1302 1298 1295 1292 1286 1279 1271 1264 1256 1249 1239 1231 1222 1207 1194 1186 1177 1163 1150 1138 1126 1112 1100 1094 1089 1079 1070 1061 1050 1040 1029 1018 1009 998 988 978 967 957 947 937 927 917 908 898 888 879 869 859 851 844 840 839 843 847 852 856 862 867 875 879 884 887 891 899 909 920 929 939 950 964 977 989 996 1002 1001 999 994 989 978 964 933 903 881 856 842 831 817 806 800
882 880 879 877 873 871 868 865 861 857 855 849 846 847 850 850 851 857 862 864 867 870 875 882 890 897 904 908 915 920 922 924 927 931 935 937 940 944 949 952 955 959 962 964 966 966 966 965 965 966 966 967 968 969 971 974 979 984 988 994 1001 1007 1013 1018 1023 1028 1033 1039 1044 1050 1054 1058 1064 1070 1077 1086 1092 1100 1105 1109 1112 1115 1116 1118 1123 1124 1125 1127 1133 1143 1154 1165 1174 1184 1193 1203 1215 1226 1236 1245 1252 1260 1266 1269 1274 1283 1295 1308 1319 1330 1340 1352 1363 1374 1385 1395 1407 1409 1405 1402 1396 1392 1388 1382 1377 1373 1369 1365 1362 1358 1354 1350 1347 1344 1342 1339 1336 1333 1330 1329 1328 1326 1323 1322 1321 1319 1317 1311 1306 1300 1296 1294 1290 1284 1275 1266 1258 1252 1246 1238 1227 1217 1205 1193 1183 1174 1162 1149 1137 1128 1116 1103 1093 1083 1076 1068 1056 1045 1035 1027 1019 1008 995 984 973 962 950 940 928 919 910 901 893 884 876 867 858 853 851 850 851 856 861 866 871 875 880 885 891 896 901 909 920 932 941 948 958 970 982 993 1000 1008 1008 1003 993 983 971 954 925 900 884 865 845 828 813 800 790 783
870 868 868 866 864 862 859 854 848 845 841 841 841 847 852 855 858 861 865 866 869 873 878 884 890 897 902 907 913 917 919 922 926 931 935 938 942 945 950 954 957 961 965 967 968 968 969 968 968 968 970 971 972 973 974 977 980 985 990 996 1004 1009 1013 1017 1023 1028 1033 1037 1042 1046 1051 1056 1061 1066 1072 1080 1088 1097 1104 1110 1118 1122 1129 1132 1136 1138 1136 1138 1143 1151 1160 1172 1182 1192 1199 1209 1218 1227 1238 1246 1254 1261 1266 1271 1280 1292 1305 1317 1327 1338 1349 1360 1370 1380 1390 1403 1415 1422 1419 1414 1409 1402 1396 1390 1383 1378 1375 1373 1369 1365 1361 1357 1353 1349 1346 1343 1340 1337 1336 1336 1334 1332 1329 1325 1322 1320 1317 1312 1305 1298 1293 1291 1290 1283 1273 1263 1254 1247 1241 1232 1223 1214 1204 1190 1176 1168 1158 1144 1129 1118 1108 1098 1088 1078 1068 1061 1053 1041 1031 1023 1013 1004 991 978 967 956 945 933 922 912 904 896 887 880 873 866 861 859 859 860 864 869 875 879 882 888 894 896 902 910 919 928 936 946 955 964 975 984 993 1002 1009 1014 1010 1002 987 972 951 929 908 889 869 842 822 809 797 785 776 769
857 855 855 854 853 851 848 845 842 838 838 839 844 850 856 861 865 867 869 871 874 878 882 885 890 896 901 905 910 914 918 920 923 929 935 939 943 946 950 954 957 960 963 965 967 968 969 971 971 972 972 973 974 975 976 978 981 985 991 998 1005 1010 1014 1018 1025 1030 1034 1037 1040 1045 1050 1057 1062 1066 1072 1081 1089 1097 1107 1114 1124 1134 1143 1148 1154 1157 1157 1158 1160 1166 1175 1186 1195 1201 1209 1216 1225 1235 1246 1252 1259 1264 1269 1276 1286 1298 1311 1324 1333 1343 1354 1365 1375 1385 1396 1407 1417 1424 1426 1425 1420 1412 1404 1397 1391 1386 1383 1382 1379 1373 1369 1366 1361 1355 1351 1347 1345 1342 1340 1338 1337 1335 1330 1325 1321 1319 1316 1310 1302 1296 1291 1288 1287 1281 1269 1256 1248 1241 1234 1225 1215 1206 1196 1183 1168 1157 1149 1137 1123 1112 1101 1089 1078 1070 1061 1056 1048 1039 1029 1019 1008 997 984 970 959 950 940 927 916 907 899 892 884 876 871 869 868 867 867 869 874 881 884 889 895 902 908 913 921 930 938 941 945 953 965 976 986 997 1008 1014 1018 1013 1006 987 968 949 930 911 892 870 849 829 810 797 785 776 766 753
845 845 844 844 841 840 839 838 837 837 838 842 848 856 861 866 869 872 875 877 881 885 887 890 894 898 903 907 913 917 920 923 926 930 936 940 944 947 952 956 958 959 961 963 965 967 968 970 973 974 974 975 975 975 976 979 982 986 992 1000 1007 1011 1015 1021 1027 1032 1036 1038 1041 1046 1053 1058 1062 1066 1072 1081 1091 1101 1110 1119 1131 1143 1155 1164 1170 1172 1172 1174 1177 1183 1188 1196 1205 1211 1214 1222 1231 1243 1252 1258 1264 1269 1276 1282 1292 1304 1318 1330 1340 1350 1360 1369 1379 1389 1399 1409 1419 1424 1429 1433 1430 1423 1417 1410 1406 1403 1398 1395 1390 1385 1379 1373 1366 1361 1358 1354 1350 1346 1344 1341 1337 1334 1330 1325 1319 1317 1313 1307 1299 1292 1287 1284 1278 1269 1259 1249 1241 1234 1224 1215 1206 1196 1184 1170 1158 1146 1136 1127 1120 1109 1095 1083 1071 1063 1056 1048 1038 1031 1025 1015 1004 990 972 961 952 942 932 921 911 902 895 889 883 877 874 875 876 877 877 877 882 889 895 900 907 915 923 929 935 944 950 954 954 960 969 986 1003 1015 1023 1026 1025 1009 988 966 944 920 899 883 863 847 829 811 796 784 773 761 749 741
836 837 836 834 830 829 830 833 834 837 842 850 857 862 866 870 872 874 878 883 887 890 894 898 901 903 909 915 919 924 928 932 933 935 939 942 945 948 952 956 958 959 960 963 966 968 969 970 973 975 977 977 977 977 978 981 984 988 993 1000 1006 1010 1014 1020 1026 1031 1035 1039 1042 1046 1053 1059 1062 1067 1073 1081 1093 1105 1116 1125 1141 1153 1166 1176 1181 1183 1182 1183 1187 1192 1199 1203 1211 1219 1223 1229 1238 1248 1256 1263 1270 1276 1281 1289 1301 1314 1326 1337 1347 1356 1363 1373 1384 1394 1403 1413 1422 1429 1436 1441 1439 1435 1428 1423 1418 1414 1411 1408 1402 1396 1390 1382 1372 1367 1363 1359 1356 1352 1348 1343 1339 1334 1330 1324 1319 1314 1309 1304 1296 1286 1280 1274 1268 1259 1248 1239 1230 1220 1211 1201 1191 1181 1169 1158 1146 1134 1124 1114 1106 1097 1088 1077 1068 1060 1051 1042 1033 1024 1013 1003 992 980 967 954 943 934 923 914 907 901 896 894 891 888 887 887 886 886 886 887 891 895 900 907 914 926 935 940 944 953 960 964 968 971 981 996 1012 1027 1030 1030 1020 1002 968 939 922 904 875 852 843 829 809 793 783 772 761 747 733 725
828 827 827 825 823 823 825 831 838 844 852 860 865 870 874 876 877 880 883 889 895 900 904 908 912 914 917 923 928 932 934 937 938 939 940 943 948 952 956 958 959 959 961 964 966 969 970 971 973 976 979 980 981 980 981 982 986 989 993 997 1002 1006 1011 1017 1024 1030 1036 1040 1043 1047 1052 1057 1062 1068 1076 1084 1095 1107 1119 1130 1143 1159 1174 1182 1187 1189 1190 1192 1195 1201 1206 1212 1220 1228 1233 1240 1248 1255 1262 1269 1277 1282 1289 1298 1310 1322 1334 1344 1353 1361 1369 1380 1390 1399 1408 1419 1429 1438 1445 1450 1453 1448 1442 1438 1435 1429 1423 1419 1414 1409 1403 1395 1386 1376 1366 1358 1356 1354 1350 1346 1340 1333 1328 1323 1315 1309 1304 1298 1290 1282 1274 1267 1259 1251 1241 1230 1217 1205 1193 1186 1179 1168 1157 1142 1130 1124 1115 1105 1097 1086 1077 1067 1058 1050 1043 1036 1026 1016 1003 990 978 968 956 946 935 924 916 909 905 903 903 906 908 906 904 901 899 898 896 897 899 903 906 912 920 930 939 947 955 961 968 976 984 995 1002 1009 1020 1029 1031 1028 997 957 935 919 902 878 856 840 827 810 794 784 774 761 750 740 728 716
819 821 822 822 824 826 830 838 845 852 860 866 870 875 880 885 889 892 896 900 905 908 912 916 920 923 925 929 933 936 938 939 941 942 944 948 953 956 960 964 964 964 964 965 968 970 971 973 975 977 979 981 982 985 985 987 990 992 994 997 1000 1004 1009 1016 1023 1029 1034 1039 1044 1050 1055 1059 1064 1070 1079 1088 1096 1105 1117 1128 1143 1162 1177 1186 1191 1194 1198 1202 1207 1211 1218 1224 1230 1237 1243 1251 1258 1265 1271 1277 1282 1288 1298 1310 1320 1331 1340 1349 1358 1365 1373 1385 1395 1403 1412 1421 1435 1447 1459 1463 1463 1461 1458 1453 1450 1443 1437 1432 1424 1415 1410 1406 1398 1386 1372 1361 1357 1355 1353 1347 1340 1333 1326 1320 1312 1304 1296 1289 1280 1271 1264 1256 1250 1241 1229 1218 1204 1191 1183 1175 1165 1153 1140 1128 1119 1112 1104 1096 1087 1074 1061 1053 1046 1039 1032 1023 1015 1000 986 976 967 959 950 940 929 920 913 912 912 914 917 921 923 924 925 922 918 915 912 908 908 908 910 915 922 932 941 949 959 969 978 987 997 1008 1017 1023 1028 1033 1031 986 943 929 914 895 877 859 842 827 813 797 782 771 761 750 738 728 719 709
814 817 823 829 833 837 842 849 855 862 868 873 877 883 888 893 897 901 905 908 911 914 917 919 924 927 929 932 934 937 939 942 946 948 950 953 956 958 962 967 970 970 970 970 970 971 973 975 977 979 980 983 986 989 991 993 995 998 999 1001 1004 1007 1012 1018 1024 1029 1033 1037 1044 1050 1056 1062 1067 1075 1082 1089 1096 1106 1116 1131 1145 1162 1177 1187 1193 1198 1205 1211 1220 1227 1232 1236 1242 1247 1253 1261 1269 1275 1279 1284 1289 1296 1308 1320 1329 1337 1345 1352 1360 1368 1378 1389 1398 1406 1413 1423 1438 1453 1463 1470 1472 1475 1471 1466 1458 1452 1445 1437 1428 1421 1415 1410 1403 1392 1379 1368 1358 1355 1353 1348 1341 1331 1322 1314 1305 1296 1287 1278 1270 1260 1252 1246 1239 1230 1217 1202 1190 1181 1170 1160 1145 1132 1123 1113 1107 1099 1088 1078 1065 1054 1049 1044 1037 1027 1017 1007 994 983 974 964 958 952 944 937 932 929 928 929 932 933 937 942 942 943 942 939 934 933 930 925 918 915 912 914 922 930 941 951 961 971 979 988 1000 1009 1017 1023 1028 1021 993 952 928 909 893 876 860 844 829 814 800 787 772 758 746 734 723 715 707 696
816 822 830 838 845 852 859 861 864 870 877 881 885 890 894 899 904 909 911 913 916 917 919 923 928 933 935 935 938 940 941 945 949 951 952 954 957 960 963 966 968 972 973 972 972 973 974 976 978 980 983 986 991 993 995 997 1001 1003 1006 1008 1012 1015 1018 1022 1026 1028 1032 1037 1043 1051 1059 1065 1071 1077 1084 1090 1100 1108 1119 1132 1145 1161 1176 1185 1192 1200 1211 1222 1231 1238 1244 1249 1252 1257 1263 1270 1276 1281 1287 1292 1298 1306 1315 1326 1335 1344 1351 1358 1366 1377 1387 1394 1403 1410 1418 1428 1439 1452 1465 1475 1481 1483 1481 1475 1467 1459 1453 1443 1431 1424 1419 1412 1404 1394 1382 1372 1364 1357 1351 1346 1338 1327 1316 1306 1295 1284 1277 1271 1262 1251 1242 1236 1228 1215 1201 1188 1177 1167 1157 1143 1128 1115 1106 1101 1091 1078 1070 1062 1051 1040 1035 1031 1021 1010 1000 990 983 974 967 958 952 947 943 942 944 946 948 949 950 953 957 961 962 962 961 958 956 954 951 946 936 927 919 916 917 925 934 948 959 970 974 980 989 997 1005 1009 1003 989 965 946 917 893 876 858 842 828 816 803 791 777 762 746 730 719 710 701 688 677
826 832 839 847 856 863 867 869 874 879 884 888 893 896 900 905 911 914 916 917 919 921 923 927 932 936 938 942 946 947 948 950 952 953 955 957 961 965 967 969 972 974 975 973 974 975 977 978 980 982 985 989 994 998 1001 1004 1006 1009 1011 1015 1019 1022 1025 1027 1029 1030 1033 1039 1047 1055 1061 1068 1073 1079 1085 1092 1101 1111 1122 1134 1147 1159 1174 1187 1194 1202 1217 1230 1240 1247 1253 1257 1260 1266 1275 1281 1286 1290 1294 1302 1310 1318 1325 1333 1341 1351 1358 1365 1373 1382 1390 1398 1407 1416 1426 1437 1446 1457 1469 1478 1485 1486 1486 1481 1475 1469 1462 1454 1444 1431 1423 1417 1406 1391 1381 1373 1364 1355 1347 1340 1331 1321 1311 1301 1288 1278 1270 1263 1253 1243 1236 1228 1217 1203 1190 1177 1164 1153 1142 1129 1112 1102 1096 1087 1074 1064 1056 1046 1036 1028 1021 1012 1004 997 989 985 977 969 964 962 960 959 958 960 960 962 965 966 969 974 980 982 981 982 982 979 974 970 965 958 952 941 930 921 918 917 924 938 955 964 968 969 973 979 985 990 981 968 941 914 898 880 864 847 830 816 802 787 773 761 748 732 719 706 699 690 678 668
837 844 850 857 864 869 874 878 880 884 889 894 896 900 904 909 915 918 918 920 923 926 929 932 936 940 944 948 951 953 956 958 960 962 963 967 969 972 974 976 978 979 978 978 978 979 980 982 984 985 988 992 998 1003 1007 1008 1010 1014 1017 1022 1027 1031 1033 1035 1037 1038 1041 1046 1051 1058 1064 1069 1075 1082 1088 1094 1102 1112 1124 1138 1152 1164 1177 1189 1199 1209 1223 1236 1244 1251 1257 1263 1270 1277 1284 1290 1294 1298 1304 1314 1321 1327 1333 1341 1349 1357 1365 1373 1381 1389 1397 1405 1413 1422 1431 1441 1453 1465 1476 1485 1490 1493 1493 1490 1479 1470 1467 1461 1448 1438 1432 1421 1407 1395 1383 1373 1363 1352 1343 1332 1322 1313 1304 1293 1281 1271 1262 1253 1242 1233 1224 1215 1203 1190 1175 1161 1152 1142 1126 1111 1100 1090 1079 1069 1061 1050 1038 1030 1024 1017 1009 1002 995 991 987 983 978 976 974 974 974 974 975 978 981 984 987 991 995 998 999 998 998 997 998 996 991 985 979 972 965 957 942 929 922 916 914 919 939 950 955 955 956 958 959 956 956 938 917 897 880 865 849 832 816 802 788 774 760 746 733 722 710 701 692 684 674 663
850 856 863 866 871 877 881 883 886 890 895 898 900 903 908 914 919 923 922 924 928 932 937 941 945 948 951 953 956 958 962 965 968 970 973 975 977 979 980 980 982 983 984 985 985 986 987 988 989 990 992 996 1002 1007 1010 1012 1015 1020 1025 1031 1035 1040 1042 1045 1047 1049 1051 1053 1057 1063 1067 1072 1078 1084 1090 1096 1104 1116 1128 1141 1157 1169 1181 1193 1203 1214 1225 1238 1247 1253 1259 1267 1274 1281 1289 1294 1299 1305 1312 1320 1327 1332 1338 1347 1356 1364 1371 1381 1390 1398 1404 1412 1421 1428 1437 1447 1458 1470 1480 1492 1497 1501 1502 1497 1486 1478 1474 1469 1451 1438 1432 1422 1409 1396 1384 1373 1360 1350 1340 1327 1315 1303 1292 1283 1273 1262 1252 1241 1231 1219 1209 1201 1189 1172 1160 1151 1140 1127 1112 1099 1088 1078 1069 1059 1049 1037 1030 1023 1017 1009 1003 997 995 993 991 992 997 997 996 994 991 989 990 995 999 1005 1011 1014 1017 1020 1021 1021 1019 1018 1019 1017 1013 1009 1001 990 979 968 955 942 928 918 909 907 910 923 934 936 936 937 936 935 931 919 896 877 862 847 835 822 808 794 779 764 752 741 727 714 703 695 687 678 667 658
861 867 873 876 880 884 888 890 893 898 903 906 907 909 914 917 922 925 928 931 935 939 944 949 953 956 958 962 966 967 969 973 974 976 978 981 983 983 984 985 986 987 988 989 989 989 990 991 992 993 996 1001 1006 1012 1016 1020 1022 1026 1031 1038 1044 1049 1052 1055 1056 1057 1058 1060 1063 1067 1071 1075 1080 1086 1091 1098 1109 1122 1135 1148 1159 1173 1187 1197 1208 1218 1230 1241 1250 1256 1262 1269 1276 1283 1290 1297 1305 1312 1318 1326 1332 1337 1344 1353 1361 1368 1377 1386 1394 1402 1410 1417 1426 1434 1442 1454 1465 1476 1488 1496 1503 1507 1509 1510 1512 1512 1509 1484 1463 1448 1434 1426 1412 1395 1382 1369 1356 1344 1335 1324 1311 1298 1286 1275 1265 1254 1241 1228 1217 1207 1197 1185 1171 1161 1150 1139 1128 1114 1100 1090 1082 1070 1060 1053 1043 1034 1027 1020 1015 1012 1011 1011 1009 1006 1009 1014 1016 1017 1013 1009 1008 1006 1009 1012 1019 1025 1031 1034 1037 1039 1041 1041 1041 1040 1039 1039 1037 1031 1021 1009 996 985 972 956 940 927 914 905 900 904 914 920 921 923 922 919 909 895 876 860 847 834 825 814 800 785 767 752 744 735 722 708 696 687 678 669 661 651
872 878 883 886 890 893 894 895 898 902 906 910 913 914 917 920 923 929 937 941 944 947 950 954 959 963 966 971 976 980 981 982 982 983 984 986 987 988 989 990 992 992 991 991 992 992 993 994 995 997 1000 1003 1010 1016 1021 1025 1027 1031 1038 1045 1052 1058 1060 1063 1064 1065 1066 1069 1070 1072 1075 1079 1084 1088 1095 1103 1112 1128 1144 1158 1172 1182 1193 1204 1214 1224 1234 1244 1252 1257 1264 1271 1278 1286 1294 1301 1309 1316 1324 1331 1337 1343 1350 1359 1366 1373 1381 1391 1399 1407 1414 1421 1430 1442 1453 1464 1473 1483 1494 1502 1508 1513 1517 1517 1519 1517 1514 1497 1476 1455 1438 1427 1411 1393 1377 1360 1348 1339 1328 1315 1304 1292 1278 1267 1256 1244 1229 1216 1206 1195 1186 1178 1166 1154 1143 1129 1114 1101 1089 1079 1069 1061 1055 1049 1042 1039 1034 1032 1027 1031 1035 1029 1027 1027 1027 1029 1030 1028 1025 1023 1024 1027 1030 1033 1037 1043 1048 1052 1054 1056 1054 1055 1054 1055 1055 1056 1053 1046 1035 1024 1013 1002 988 973 960 947 932 911 900 895 899 905 906 905 907 903 893 876 858 844 830 821 813 803 790 772 756 747 739 729 718 706 694 682 672 662 650 639
883 888 894 897 898 898 900 902 904 907 909 911 913 917 920 923 928 935 943 948 952 956 960 964 971 974 976 981 985 987 988 989 988 989 990 991 993 995 995 995 996 996 997 998 998 999 1000 1000 1001 1002 1005 1010 1015 1020 1025 1029 1033 1039 1047 1052 1059 1062 1066 1070 1072 1073 1075 1076 1079 1080 1083 1085 1089 1094 1100 1109 1119 1135 1152 1169 1180 1189 1199 1208 1218 1228 1239 1247 1251 1257 1265 1272 1279 1287 1296 1304 1311 1319 1328 1336 1342 1349 1357 1366 1371 1378 1387 1395 1403 1412 1419 1428 1439 1451 1461 1471 1482 1491 1498 1504 1512 1519 1524 1526 1524 1519 1509 1495 1472 1450 1433 1420 1407 1389 1370 1356 1342 1328 1314 1306 1296 1283 1271 1259 1247 1231 1217 1207 1196 1185 1175 1165 1154 1142 1130 1116 1104 1094 1080 1067 1061 1056 1052 1051 1054 1056 1054 1055 1058 1057 1054 1051 1048 1048 1051 1051 1049 1048 1045 1045 1046 1047 1049 1050 1054 1059 1066 1069 1073 1070 1068 1067 1066 1068 1070 1070 1066 1057 1047 1036 1025 1013 1001 987 973 957 948 931 908 890 888 888 889 887 883 881 877 867 855 837 824 813 805 796 783 768 753 744 735 725 714 702 688 676 666 654 642 633
891 897 900 902 903 903 905 907 909 910 911 913 915 919 925 928 933 941 948 954 960 966 970 977 981 984 987 989 991 991 991 991 993 996 999 1001 1001 1001 1000 1000 1002 1005 1005 1005 1005 1005 1006 1006 1006 1007 1010 1016 1021 1025 1029 1034 1040 1050 1056 1061 1064 1067 1071 1076 1080 1081 1081 1083 1085 1087 1090 1093 1096 1100 1107 1117 1130 1143 1159 1176 1184 1195 1204 1213 1221 1230 1238 1245 1249 1256 1264 1272 1279 1287 1296 1304 1310 1320 1331 1338 1346 1355 1365 1371 1376 1382 1390 1398 1407 1417 1425 1434 1447 1459 1466 1476 1488 1498 1504 1511 1518 1526 1526 1525 1519 1512 1506 1495 1472 1448 1433 1419 1402 1384 1369 1354 1339 1325 1310 1299 1289 1275 1262 1250 1238 1226 1211 1198 1188 1175 1163 1149 1136 1128 1119 1107 1098 1090 1083 1078 1075 1071 1068 1068 1070 1073 1077 1078 1080 1078 1076 1074 1074 1075 1077 1077 1072 1067 1065 1065 1064 1065 1067 1070 1072 1077 1082 1084 1085 1084 1082 1079 1080 1081 1083 1082 1078 1073 1067 1057 1043 1026 1012 995 980 968 955 936 913 896 884 880 877 873 868 865 859 850 836 826 817 807 797 786 775 763 751 740 729 718 707 694 682 668 656 644 633 624
897 902 903 904 905 907 908 910 912 913 914 915 918 923 930 935 939 946 953 958 963 969 975 980 985 989 993 996 997 995 995 996 999 1003 1007 1009 1007 1005 1003 1004 1007 1010 1011 1009 1008 1008 1009 1009 1009 1010 1013 1018 1023 1028 1033 1038 1045 1054 1060 1067 1071 1074 1079 1084 1089 1091 1089 1089 1090 1093 1096 1100 1104 1108 1114 1123 1135 1147 1166 1179 1190 1201 1211 1218 1226 1234 1240 1245 1250 1256 1264 1272 1280 1287 1295 1303 1310 1320 1331 1340 1350 1360 1370 1375 1380 1384 1392 1401 1409 1419 1428 1439 1452 1463 1473 1485 1498 1506 1512 1518 1526 1526 1523 1518 1512 1506 1499 1490 1475 1456 1439 1423 1405 1386 1364 1343 1330 1317 1307 1297 1286 1274 1261 1247 1233 1220 1205 1190 1175 1162 1147 1138 1133 1125 1115 1107 1099 1096 1093 1095 1097 1095 1094 1090 1088 1090 1092 1097 1099 1099 1099 1100 1100 1099 1098 1097 1093 1089 1085 1081 1080 1081 1084 1086 1090 1093 1094 1093 1094 1094 1093 1092 1092 1093 1094 1093 1093 1090 1086 1079 1068 1040 1016 1004 993 979 965 956 934 900 878 870 865 861 857 852 845 834 822 810 800 793 785 775 766 757 745 733 722 711 700 688 672 657 646 635 626 619
899 901 903 905 906 907 909 912 914 914 916 918 922 928 933 939 945 952 958 964 968 973 978 983 987 993 998 1001 1001 1000 1000 1001 1004 1007 1009 1010 1010 1008 1006 1007 1009 1011 1011 1009 1009 1009 1010 1012 1013 1015 1017 1020 1024 1031 1036 1041 1049 1056 1063 1071 1077 1082 1088 1093 1096 1097 1096 1096 1098 1099 1103 1107 1110 1114 1119 1127 1141 1153 1169 1182 1196 1209 1217 1224 1230 1236 1241 1247 1251 1257 1263 1271 1279 1286 1295 1303 1312 1322 1331 1342 1352 1362 1370 1377 1382 1388 1396 1404 1412 1421 1432 1443 1456 1467 1479 1491 1503 1513 1519 1526 1531 1529 1522 1514 1509 1503 1497 1483 1468 1457 1442 1425 1406 1382 1359 1342 1326 1314 1304 1294 1283 1270 1255 1240 1227 1216 1206 1191 1178 1164 1157 1153 1146 1137 1127 1120 1119 1115 1111 1110 1111 1113 1113 1113 1113 1115 1118 1116 1117 1119 1121 1120 1119 1118 1115 1113 1110 1106 1101 1096 1094 1095 1097 1100 1101 1102 1103 1102 1102 1104 1105 1104 1103 1102 1101 1102 1102 1100 1097 1093 1079 1062 1043 1020 1002 987 970 948 917 893 878 867 861 853 847 839 831 819 806 797 788 782 776 770 762 749 737 725 715 706 693 677 664 651 639 630 622 614
900 902 904 906 907 908 909 911 912 914 917 921 927 930 936 943 950 955 962 969 975 981 987 990 995 999 1001 1001 1001 1002 1002 1004 1006 1007 1010 1011 1011 1010 1009 1010 1011 1011 1011 1010 1010 1011 1011 1013 1016 1019 1021 1023 1028 1034 1038 1044 1051 1060 1068 1076 1082 1088 1093 1097 1099 1099 1099 1102 1104 1107 1110 1114 1118 1122 1127 1138 1152 1166 1178 1188 1201 1213 1221 1227 1231 1235 1240 1246 1252 1258 1264 1272 1280 1286 1294 1304 1313 1323 1332 1341 1351 1362 1371 1377 1385 1392 1399 1407 1414 1424 1435 1448 1460 1472 1483 1495 1506 1515 1522 1530 1536 1535 1523 1513 1507 1500 1490 1478 1463 1450 1438 1421 1401 1382 1363 1342 1322 1312 1302 1291 1281 1269 1255 1238 1225 1217 1210 1205 1195 1184 1175 1172 1164 1152 1147 1145 1143 1140 1136 1133 1130 1128 1127 1128 1134 1138 1137 1136 1135 1136 1137 1136 1133 1132 1132 1130 1127 1122 1117 1113 1110 1110 1111 1111 1112 1113 1114 1113 1113 1114 1115 1116 1115 1114 1112 1109 1107 1106 1103 1098 1089 1077 1059 1035 1007 991 980 956 931 910 890 875 862 850 837 826 814 802 794 786 780 774 766 760 754 743 729 717 708 697 683 668 653 639 629 619 610 606
900 902 904 906 907 907 909 910 912 913 916 922 927 934 940 946 952 958 965 974 981 987 993 997 999 1001 1001 1000 1000 1001 1002 1004 1005 1007 1009 1011 1012 1011 1011 1012 1012 1012 1012 1012 1013 1014 1014 1015 1018 1022 1025 1028 1032 1036 1041 1047 1055 1063 1072 1080 1086 1092 1097 1100 1101 1101 1103 1107 1111 1113 1115 1121 1127 1134 1142 1155 1165 1177 1187 1198 1208 1217 1223 1230 1234 1237 1240 1245 1253 1260 1266 1274 1281 1287 1296 1305 1314 1322 1331 1341 1353 1363 1372 1381 1388 1397 1404 1411 1417 1427 1440 1453 1466 1477 1488 1496 1506 1516 1525 1534 1538 1534 1524 1512 1502 1497 1484 1469 1458 1447 1431 1414 1399 1385 1366 1342 1325 1312 1302 1294 1285 1273 1255 1239 1229 1218 1211 1209 1205 1197 1188 1182 1177 1171 1166 1163 1161 1158 1156 1151 1148 1151 1152 1150 1153 1156 1155 1155 1155 1156 1155 1152 1149 1147 1147 1147 1142 1136 1132 1128 1124 1122 1123 1124 1125 1125 1125 1126 1124 1123 1125 1128 1127 1125 1119 1114 1110 1109 1107 1101 1094 1083 1072 1055 1035 1008 984 966 947 927 907 887 865 843 827 815 805 795 783 774 768 762 755 751 744 734 724 711 700 688 675 659 641 629 619 610 604 599
899 900 902 903 905 906 908 911 911 912 916 922 929 934 942 948 952 959 967 977 986 992 996 999 1000 1000 1000 999 998 999 1000 1002 1004 1006 1009 1012 1012 1012 1013 1014 1015 1015 1015 1015 1016 1016 1017 1017 1020 1023 1027 1030 1034 1038 1044 1050 1057 1067 1074 1083 1090 1095 1100 1104 1105 1106 1107 1112 1115 1118 1120 1128 1135 1143 1155 1173 1182 1191 1200 1208 1216 1221 1226 1231 1236 1240 1244 1248 1255 1262 1267 1274 1282 1290 1296 1305 1315 1324 1331 1342 1353 1363 1373 1383 1391 1401 1409 1416 1423 1431 1444 1456 1467 1479 1488 1497 1507 1517 1528 1535 1539 1534 1527 1516 1505 1492 1479 1465 1454 1444 1430 1416 1400 1384 1368 1353 1338 1325 1312 1301 1292 1282 1267 1254 1243 1233 1225 1222 1224 1217 1208 1201 1197 1191 1185 1179 1174 1172 1170 1170 1171 1174 1175 1177 1179 1178 1175 1173 1173 1173 1172 1169 1166 1163 1160 1157 1153 1147 1143 1140 1137 1134 1134 1134 1134 1134 1136 1138 1139 1138 1138 1140 1140 1135 1128 1118 1113 1111 1108 1102 1094 1083 1070 1046 1014 995 984 963 938 924 911 893 871 850 831 811 796 785 775 763 752 747 741 733 727 723 716 705 692 680 664 648 635 621 614 609 602 597
895 896 896 898 900 904 906 907 908 911 917 923 928 934 940 947 954 960 967 976 985 991 996 998 997 997 998 997 995 995 996 998 1000 1004 1007 1010 1011 1012 1013 1015 1016 1017 1017 1017 1018 1018 1019 1020 1022 1024 1028 1032 1036 1042 1047 1052 1060 1066 1075 1084 1092 1098 1102 1105 1106 1107 1110 1114 1117 1121 1126 1134 1144 1152 1171 1191 1202 1209 1214 1220 1224 1227 1229 1234 1239 1244 1248 1252 1257 1263 1268 1274 1282 1289 1297 1305 1316 1326 1333 1342 1351 1362 1374 1383 1393 1405 1413 1418 1425 1437 1448 1458 1467 1477 1488 1497 1509 1520 1529 1537 1542 1542 1533 1521 1508 1495 1480 1468 1455 1444 1435 1419 1403 1390 1373 1358 1345 1334 1322 1311 1301 1293 1284 1271 1261 1254 1248 1245 1240 1231 1226 1222 1214 1208 1203 1196 1189 1184 1185 1186 1189 1193 1197 1198 1200 1198 1193 1188 1186 1186 1185 1184 1180 1176 1172 1167 1162 1158 1155 1151 1147 1147 1145 1144 1143 1143 1145 1149 1151 1152 1152 1153 1148 1141 1132 1123 1117 1113 1109 1104 1091 1076 1061 1044 1018 996 988 973 948 927 912 894 873 852 831 811 792 783 775 763 750 735 725 720 715 710 703 693 683 669 654 640 627 617 610 604 599 593
892 892 894 894 896 899 902 903 905 911 919 925 930 935 940 946 953 960 967 973 979 983 987 990 992 994 994 992 991 991 992 994 998 1000 1004 1007 1010 1012 1013 1014 1015 1016 1016 1017 1018 1019 1020 1022 1023 1025 1027 1030 1035 1042 1048 1054 1060 1066 1073 1084 1092 1097 1101 1104 1106 1107 1111 1114 1117 1124 1132 1144 1155 1170 1191 1209 1222 1225 1230 1231 1231 1232 1233 1238 1243 1247 1251 1253 1258 1263 1268 1273 1280 1289 1297 1307 1318 1327 1335 1343 1353 1364 1377 1387 1395 1405 1413 1420 1428 1439 1450 1460 1470 1479 1490 1499 1510 1521 1531 1540 1545 1545 1536 1525 1508 1495 1482 1471 1460 1450 1438 1424 1412 1398 1383 1365 1348 1337 1327 1315 1307 1300 1292 1282 1273 1269 1264 1258 1251 1247 1243 1237 1230 1223 1219 1216 1210 1206 1206 1208 1209 1209 1211 1214 1212 1209 1207 1202 1200 1198 1198 1197 1194 1190 1184 1178 1173 1168 1164 1161 1159 1157 1156 1152 1151 1152 1155 1157 1159 1159 1160 1159 1157 1152 1142 1133 1124 1115 1107 1094 1082 1071 1056 1035 1015 999 984 967 949 926 909 893 864 839 830 817 803 789 776 766 754 739 722 712 708 701 693 684 672 659 648 635 621 612 604 598 592 592
889 892 893 893 894 896 899 900 904 911 918 926 932 937 940 944 951 957 964 970 974 977 979 982 985 987 987 987 987 988 991 994 996 998 1001 1005 1009 1011 1012 1013 1014 1015 1016 1017 1019 1020 1021 1022 1024 1025 1027 1031 1035 1040 1047 1053 1058 1065 1074 1083 1089 1093 1098 1102 1105 1108 1110 1114 1121 1130 1141 1155 1167 1179 1201 1216 1230 1238 1243 1242 1241 1242 1243 1246 1249 1251 1254 1257 1260 1264 1269 1273 1280 1288 1298 1308 1319 1327 1335 1346 1356 1368 1380 1390 1398 1406 1415 1424 1434 1445 1454 1462 1472 1480 1492 1502 1512 1524 1534 1541 1545 1547 1543 1529 1515 1501 1488 1476 1466 1455 1444 1433 1417 1402 1392 1380 1364 1350 1340 1330 1321 1312 1303 1295 1289 1284 1281 1276 1271 1265 1262 1256 1249 1243 1240 1235 1231 1228 1229 1232 1233 1236 1234 1229 1225 1221 1220 1219 1218 1215 1212 1209 1205 1202 1197 1192 1187 1183 1178 1177 1174 1172 1168 1165 1163 1163 1167 1168 1167 1166 1165 1165 1165 1161 1155 1145 1133 1117 1100 1090 1080 1063 1046 1028 1011 995 979 960 942 927 907 880 857 842 832 821 807 791 779 769 762 753 731 711 701 693 684 673 661 649 638 629 622 614 607 600 594 593
888 890 891 891 893 896 899 902 904 909 915 920 930 936 940 944 948 954 958 963 968 972 975 978 980 981 980 982 984 987 990 992 994 996 998 1002 1006 1009 1011 1012 1013 1014 1016 1017 1019 1020 1020 1022 1023 1026 1028 1030 1033 1038 1044 1051 1058 1067 1076 1084 1088 1093 1097 1102 1104 1107 1110 1114 1123 1137 1150 1164 1173 1183 1199 1215 1235 1245 1247 1249 1248 1249 1251 1252 1253 1254 1257 1259 1263 1267 1270 1274 1282 1292 1300 1308 1318 1326 1335 1347 1360 1370 1381 1391 1402 1409 1417 1426 1436 1446 1456 1465 1472 1483 1494 1506 1517 1526 1534 1543 1547 1548 1545 1533 1521 1510 1497 1485 1472 1462 1450 1435 1418 1403 1399 1393 1379 1366 1356 1347 1337 1328 1322 1317 1313 1309 1301 1294 1288 1285 1281 1275 1267 1261 1255 1252 1248 1247 1249 1251 1251 1250 1248 1244 1238 1236 1235 1234 1233 1228 1224 1220 1217 1215 1210 1205 1200 1196 1193 1190 1189 1187 1184 1180 1178 1179 1177 1174 1171 1169 1169 1169 1167 1164 1158 1149 1132 1113 1101 1091 1075 1057 1040 1024 1008 987 965 949 940 926 905 887 869 851 833 819 803 790 779 770 759 745 727 704 689 682 672 660 648 638 632 628 623 616 609 602 597 592
889 890 890 891 894 898 902 904 906 910 914 918 923 932 936 940 945 949 954 956 962 966 972 976 976 978 979 980 982 986 989 991 994 996 998 1001 1005 1007 1009 1012 1013 1014 1015 1017 1018 1019 1020 1021 1024 1026 1027 1028 1032 1037 1043 1052 1059 1067 1077 1083 1087 1091 1096 1099 1101 1104 1108 1115 1127 1144 1157 1167 1175 1186 1199 1218 1233 1244 1249 1252 1252 1252 1252 1254 1255 1256 1258 1261 1265 1269 1272 1276 1285 1295 1302 1309 1316 1326 1336 1348 1360 1370 1381 1394 1403 1409 1417 1426 1438 1448 1458 1468 1477 1486 1497 1507 1519 1529 1539 1547 1552 1551 1545 1536 1528 1518 1505 1492 1479 1465 1455 1442 1428 1418 1408 1401 1394 1381 1370 1363 1357 1349 1341 1339 1335 1329 1321 1311 1303 1299 1293 1287 1280 1272 1268 1265 1264 1264 1264 1266 1266 1263 1260 1256 1251 1246 1245 1243 1240 1236 1233 1231 1229 1226 1224 1218 1215 1210 1207 1204 1203 1202 1199 1193 1189 1186 1183 1178 1174 1171 1169 1168 1165 1161 1154 1147 1130 1111 1096 1084 1067 1048 1032 1017 1002 983 962 947 933 917 902 885 866 849 835 818 802 790 778 767 754 738 719 701 685 671 661 651 642 636 630 624 619 611 603 598 593 591
892 893 895 896 900 905 908 911 913 915 918 920 924 930 933 936 940 945 949 953 957 963 968 972 974 976 979 981 983 986 990 993 994 996 999 1003 1004 1007 1009 1011 1013 1015 1017 1018 1018 1019 1021 1023 1025 1027 1027 1030 1035 1040 1046 1053 1059 1065 1073 1079 1083 1088 1093 1098 1100 1103 1109 1117 1133 1150 1161 1168 1174 1183 1197 1215 1229 1243 1249 1251 1253 1253 1253 1254 1256 1258 1259 1262 1266 1271 1274 1279 1287 1295 1302 1308 1317 1327 1339 1349 1360 1372 1383 1394 1403 1411 1419 1429 1440 1450 1460 1470 1480 1491 1500 1510 1523 1534 1544 1551 1555 1555 1550 1543 1533 1524 1513 1500 1490 1477 1464 1452 1441 1434 1427 1415 1403 1396 1389 1383 1375 1368 1360 1352 1348 1343 1336 1330 1322 1314 1308 1301 1292 1287 1282 1282 1281 1278 1277 1277 1275 1272 1270 1267 1263 1258 1252 1249 1246 1243 1241 1241 1239 1237 1233 1228 1224 1221 1219 1218 1216 1215 1210 1204 1198 1193 1187 1182 1178 1173 1169 1163 1159 1152 1144 1132 1116 1102 1089 1073 1057 1041 1025 1010 996 982 963 942 925 913 896 874 853 837 824 808 797 787 776 761 743 727 714 701 684 667 656 649 641 633 627 621 615 608 604 599 595 591
899 901 902 904 907 911 914 918 919 920 921 923 928 932 936 938 941 944 947 951 957 963 968 971 973 976 978 981 984 987 991 994 996 997 999 1002 1003 1005 1008 1010 1012 1014 1017 1018 1020 1020 1022 1024 1027 1028 1028 1030 1035 1041 1045 1051 1057 1064 1070 1075 1080 1086 1091 1096 1099 1103 1110 1119 1135 1152 1163 1170 1174 1182 1192 1207 1223 1240 1245 1249 1252 1253 1253 1255 1257 1260 1262 1264 1269 1274 1277 1283 1289 1296 1302 1311 1319 1329 1339 1350 1360 1371 1382 1393 1403 1413 1423 1432 1442 1451 1462 1473 1483 1494 1505 1513 1526 1539 1547 1554 1557 1558 1556 1549 1540 1529 1518 1508 1500 1491 1477 1463 1454 1443 1435 1428 1420 1413 1409 1402 1394 1385 1375 1367 1359 1351 1345 1339 1333 1327 1320 1315 1309 1304 1300 1297 1294 1290 1289 1287 1285 1282 1279 1276 1272 1266 1258 1254 1251 1250 1251 1251 1249 1245 1241 1237 1234 1231 1230 1227 1226 1224 1219 1212 1206 1200 1193 1186 1179 1173 1169 1161 1152 1144 1136 1124 1109 1096 1083 1066 1049 1036 1023 1006 992 979 960 941 925 909 892 871 849 833 823 810 798 786 770 750 729 713 703 692 677 662 653 646 639 632 626 621 615 610 606 601 596 594
908 912 913 914 916 919 922 925 926 923 924 927 931 935 938 940 941 945 949 954 959 964 968 971 972 974 977 980 983 986 990 994 998 998 999 1000 1002 1004 1006 1009 1010 1012 1015 1019 1021 1021 1022 1025 1027 1028 1027 1029 1036 1042 1046 1050 1055 1063 1071 1077 1082 1088 1093 1097 1099 1101 1109 1121 1136 1150 1163 1172 1177 1181 1191 1201 1217 1232 1241 1246 1250 1252 1254 1256 1259 1262 1264 1267 1270 1274 1280 1285 1290 1296 1304 1312 1320 1328 1338 1351 1361 1368 1378 1390 1402 1415 1426 1435 1445 1455 1466 1476 1485 1496 1507 1517 1531 1542 1549 1556 1563 1563 1561 1556 1549 1540 1529 1518 1512 1502 1487 1474 1466 1458 1450 1443 1438 1432 1424 1417 1410 1403 1393 1383 1372 1362 1355 1350 1345 1337 1331 1325 1320 1317 1312 1307 1304 1301 1299 1296 1295 1291 1287 1282 1278 1272 1266 1260 1257 1256 1258 1258 1256 1253 1251 1247 1246 1244 1242 1240 1236 1231 1226 1220 1213 1206 1198 1188 1180 1175 1170 1164 1154 1144 1130 1116 1104 1092 1073 1055 1045 1035 1018 1000 988 976 959 942 922 904 889 871 851 836 822 809 798 782 765 745 725 709 694 683 672 662 654 645 636 630 626 621 615 611 606 600 597 595
918 922 925 927 928 929 930 933 934 933 931 932 934 938 939 941 943 946 952 958 962 966 970 972 973 974 977 981 985 987 990 994 997 998 999 1000 1002 1004 1006 1008 1009 1010 1014 1018 1022 1022 1022 1024 1027 1029 1029 1032 1037 1043 1048 1051 1055 1062 1073 1079 1084 1089 1094 1098 1100 1102 1110 1122 1137 1151 1164 1173 1178 1184 1191 1200 1212 1224 1231 1239 1246 1250 1256 1261 1261 1263 1266 1268 1271 1275 1280 1286 1291 1296 1303 1313 1321 1327 1339 1352 1360 1368 1379 1391 1402 1414 1426 1437 1448 1459 1469 1477 1487 1498 1509 1518 1531 1544 1551 1560 1566 1567 1565 1561 1556 1549 1540 1529 1519 1509 1497 1488 1481 1472 1464 1455 1447 1442 1436 1429 1422 1417 1410 1400 1389 1375 1365 1360 1354 1347 1341 1335 1331 1328 1324 1318 1313 1310 1308 1305 1302 1300 1295 1290 1283 1276 1270 1266 1262 1261 1261 1263 1264 1262 1258 1258 1259 1256 1253 1249 1244 1238 1232 1225 1219 1212 1205 1197 1188 1179 1172 1163 1151 1134 1122 1113 1100 1084 1067 1051 1039 1029 1012 991 982 973 960 945 929 909 886 865 847 833 819 802 784 767 751 738 724 708 694 680 670 662 653 641 631 626 622 617 612 607 604 600 596 595
928 933 937 939 940 940 940 942 944 944 942 941 943 943 943 944 944 948 954 960 965 969 972 973 974 976 980 983 987 990 991 993 996 997 1000 1002 1003 1005 1006 1006 1006 1007 1011 1016 1019 1021 1022 1024 1026 1029 1030 1032 1036 1041 1045 1050 1055 1062 1070 1077 1082 1087 1092 1097 1101 1104 1111 1122 1138 1152 1163 1170 1176 1182 1188 1196 1205 1215 1222 1230 1239 1249 1257 1261 1263 1265 1268 1271 1273 1277 1283 1287 1293 1299 1305 1313 1321 1330 1342 1353 1363 1372 1384 1396 1405 1415 1429 1440 1450 1461 1470 1479 1490 1501 1512 1521 1533 1543 1552 1560 1566 1568 1567 1565 1562 1556 1549 1535 1525 1518 1508 1499 1493 1485 1471 1461 1454 1449 1444 1441 1435 1428 1418 1408 1398 1384 1370 1363 1359 1356 1351 1347 1342 1338 1335 1330 1326 1322 1319 1314 1311 1307 1304 1297 1290 1282 1275 1270 1267 1265 1265 1267 1268 1267 1265 1265 1266 1266 1260 1257 1254 1247 1238 1229 1223 1216 1209 1202 1195 1185 1172 1158 1143 1129 1116 1106 1099 1081 1062 1047 1034 1023 1011 1000 989 976 961 945 928 910 888 862 845 833 816 798 780 763 747 731 717 704 689 676 666 656 646 636 628 623 619 612 606 604 602 600 597 596
940 944 947 949 949 951 952 952 953 953 953 952 951 950 950 949 951 952 956 961 966 970 973 976 978 980 984 987 989 990 992 994 995 997 999 1002 1004 1004 1005 1005 1005 1007 1011 1015 1018 1020 1023 1024 1025 1027 1029 1031 1034 1039 1044 1051 1057 1063 1069 1075 1081 1087 1091 1095 1099 1104 1111 1123 1136 1151 1161 1167 1173 1179 1185 1192 1200 1208 1216 1225 1236 1247 1254 1259 1263 1268 1273 1276 1278 1282 1285 1288 1294 1300 1307 1314 1322 1333 1346 1359 1370 1379 1390 1400 1412 1424 1435 1446 1454 1463 1472 1484 1495 1505 1514 1525 1538 1547 1556 1563 1568 1571 1573 1572 1567 1561 1554 1544 1535 1526 1518 1512 1504 1496 1484 1471 1467 1462 1455 1447 1442 1435 1422 1410 1402 1392 1379 1370 1365 1361 1358 1354 1350 1346 1343 1340 1336 1334 1328 1323 1317 1314 1309 1304 1299 1292 1285 1277 1272 1269 1268 1269 1270 1269 1268 1268 1269 1266 1264 1262 1261 1255 1246 1238 1229 1220 1211 1203 1197 1188 1176 1164 1150 1132 1116 1106 1093 1074 1055 1042 1033 1020 1007 996 984 970 954 935 919 899 876 858 840 826 809 790 773 754 737 727 716 701 688 675 663 653 643 634 627 621 616 610 604 601 600 599 597 596
952 954 956 959 960 963 962 960 958 959 958 958 957 956 956 957 957 957 959 963 968 972 975 977 979 982 985 988 990 992 994 995 995 996 998 1001 1003 1004 1004 1005 1006 1009 1012 1015 1018 1021 1023 1024 1024 1025 1027 1030 1035 1041 1046 1051 1057 1064 1072 1075 1081 1087 1091 1094 1098 1102 1109 1121 1136 1147 1157 1165 1170 1176 1182 1190 1196 1204 1211 1221 1231 1242 1249 1254 1259 1265 1271 1275 1279 1283 1287 1290 1293 1302 1308 1316 1325 1336 1350 1362 1375 1383 1393 1405 1418 1432 1444 1452 1459 1468 1478 1488 1498 1508 1518 1530 1541 1549 1557 1564 1568 1575 1579 1579 1574 1567 1560 1549 1537 1530 1527 1525 1514 1498 1486 1481 1476 1470 1461 1452 1444 1434 1425 1416 1407 1399 1391 1382 1374 1368 1363 1358 1354 1351 1348 1345 1343 1337 1332 1327 1321 1316 1313 1310 1306 1301 1295 1288 1278 1271 1269 1269 1269 1268 1267 1267 1267 1266 1266 1267 1266 1261 1254 1246 1237 1226 1216 1207 1198 1191 1180 1166 1150 1133 1120 1107 1089 1070 1057 1045 1035 1024 1006 989 976 961 940 921 904 886 865 848 834 820 806 789 771 755 740 729 718 700 684 675 665 653 643 635 628 622 616 611 607 603 599 597 596 595
965 965 967 969 972 972 970 967 965 966 967 968 968 969 967 966 965 963 963 965 969 973 976 976 977 980 984 988 990 993 995 996 996 997 998 1000 1002 1003 1004 1005 1007 1009 1013 1015 1017 1020 1024 1025 1025 1026 1027 1030 1036 1041 1046 1051 1057 1064 1070 1076 1081 1086 1091 1095 1099 1103 1110 1122 1135 1145 1153 1159 1165 1173 1179 1185 1192 1199 1205 1213 1224 1235 1243 1248 1254 1260 1265 1271 1276 1282 1289 1292 1297 1302 1310 1319 1328 1339 1351 1363 1375 1385 1396 1410 1423 1434 1446 1456 1465 1473 1481 1490 1500 1511 1521 1533 1542 1551 1558 1564 1570 1577 1582 1582 1576 1569 1560 1550 1543 1538 1537 1529 1515 1501 1490 1485 1481 1472 1461 1452 1443 1435 1427 1417 1408 1400 1393 1387 1380 1372 1367 1362 1357 1354 1351 1348 1345 1340 1334 1327 1321 1317 1316 1315 1313 1309 1303 1295 1287 1277 1271 1270 1268 1266 1265 1265 1266 1267 1270 1272 1271 1267 1261 1253 1243 1234 1224 1212 1203 1195 1184 1167 1151 1139 1127 1113 1097 1080 1063 1051 1040 1024 1008 991 973 957 940 921 901 882 865 850 832 816 804 791 772 754 741 728 709 692 682 672 663 655 647 639 629 622 616 611 607 603 601 598 595 594
976 977 977 978 979 979 978 977 976 977 980 980 978 976 976 975 973 971 969 969 971 973 974 974 976 981 985 988 991 994 996 997 997 997 998 999 1000 1002 1005 1006 1008 1010 1013 1016 1018 1021 1025 1026 1026 1026 1027 1030 1035 1041 1045 1051 1057 1063 1069 1075 1080 1085 1089 1093 1098 1102 1111 1123 1132 1142 1150 1154 1158 1168 1174 1180 1186 1193 1200 1208 1218 1228 1237 1243 1250 1256 1261 1266 1272 1279 1288 1294 1297 1302 1312 1322 1332 1343 1354 1366 1378 1389 1400 1414 1426 1436 1446 1457 1467 1475 1483 1492 1503 1514 1523 1534 1544 1552 1562 1569 1575 1581 1583 1581 1574 1565 1559 1553 1548 1543 1534 1523 1512 1501 1491 1483 1475 1468 1458 1449 1439 1431 1425 1417 1406 1397 1391 1385 1378 1373 1369 1363 1358 1355 1352 1349 1345 1339 1332 1327 1322 1319 1317 1318 1318 1313 1307 1301 1294 1286 1279 1273 1268 1264 1263 1264 1266 1269 1273 1275 1274 1271 1264 1258 1250 1239 1228 1217 1208 1199 1189 1177 1161 1146 1132 1118 1102 1084 1066 1055 1044 1029 1014 991 970 955 937 915 896 880 864 848 831 814 801 789 773 757 740 721 710 699 687 676 667 657 647 638 631 625 617 612 608 604 602 599 596 595
985 987 988 988 988 987 988 987 988 989 991 991 989 987 984 983 980 977 974 973 973 974 974 976 979 983 987 990 992 994 996 996 997 997 998 998 999 1002 1004 1007 1009 1011 1014 1017 1021 1023 1025 1025 1025 1025 1027 1030 1034 1039 1045 1051 1058 1062 1067 1072 1077 1082 1086 1089 1092 1098 1108 1120 1131 1140 1148 1151 1156 1163 1172 1176 1181 1186 1193 1201 1209 1219 1228 1238 1246 1252 1257 1262 1269 1277 1285 1291 1294 1301 1313 1324 1334 1345 1358 1370 1382 1392 1402 1412 1424 1437 1448 1458 1467 1475 1484 1494 1504 1516 1525 1533 1543 1552 1563 1572 1579 1581 1582 1577 1569 1561 1556 1551 1546 1539 1530 1518 1509 1499 1489 1478 1466 1456 1449 1442 1434 1426 1420 1412 1402 1393 1387 1381 1375 1371 1366 1361 1356 1353 1348 1344 1339 1336 1331 1326 1323 1321 1318 1317 1316 1315 1310 1305 1300 1295 1287 1280 1271 1265 1264 1265 1266 1268 1275 1279 1278 1274 1268 1263 1255 1245 1234 1223 1213 1205 1197 1188 1176 1162 1146 1129 1108 1089 1074 1060 1048 1036 1021 1000 978 961 937 910 893 879 868 856 840 818 800 788 775 756 735 719 706 699 694 684 673 660 648 640 631 625 619 614 609 605 602 599 596 594
994 996 996 997 997 998 999 1000 999 1000 1001 999 997 994 991 987 984 980 978 977 976 975 976 978 980 985 988 990 991 992 994 995 995 995 996 996 998 1000 1002 1006 1009 1012 1015 1020 1023 1024 1024 1023 1024 1026 1028 1030 1033 1037 1043 1050 1055 1061 1065 1070 1076 1080 1083 1086 1091 1098 1109 1122 1133 1140 1146 1151 1157 1163 1169 1174 1178 1182 1188 1195 1200 1208 1218 1229 1240 1248 1254 1260 1266 1273 1280 1287 1293 1302 1313 1324 1334 1344 1360 1370 1381 1392 1401 1411 1423 1434 1447 1456 1464 1473 1483 1495 1506 1515 1523 1531 1541 1551 1559 1566 1573 1577 1576 1571 1563 1556 1549 1541 1532 1524 1516 1507 1499 1490 1480 1468 1455 1447 1440 1434 1427 1420 1412 1402 1393 1386 1380 1374 1370 1366 1360 1355 1350 1346 1342 1339 1335 1332 1328 1324 1321 1317 1315 1313 1312 1311 1309 1306 1302 1297 1292 1284 1276 1269 1265 1266 1269 1270 1275 1279 1280 1276 1272 1266 1258 1250 1241 1232 1222 1215 1208 1197 1185 1174 1158 1138 1118 1099 1082 1066 1053 1040 1021 1000 982 966 947 923 897 880 870 858 841 819 799 786 772 758 743 725 710 702 694 686 676 666 655 639 629 624 619 614 610 606 602 599 595 592
1007 1008 1007 1007 1009 1011 1013 1011 1008 1007 1006 1005 1003 1000 996 991 985 982 979 977 976 975 976 978 980 982 985 987 989 991 993 994 994 994 994 994 996 998 1002 1006 1009 1012 1015 1019 1022 1023 1023 1023 1024 1028 1030 1031 1033 1036 1040 1046 1053 1057 1063 1068 1074 1077 1081 1086 1093 1101 1110 1122 1134 1141 1144 1149 1154 1160 1166 1171 1174 1179 1185 1191 1196 1204 1213 1223 1233 1243 1250 1256 1262 1268 1276 1284 1293 1305 1314 1323 1332 1343 1355 1365 1377 1389 1400 1411 1421 1430 1441 1452 1461 1468 1479 1491 1501 1510 1519 1528 1539 1547 1555 1560 1565 1569 1569 1564 1556 1548 1540 1531 1522 1514 1503 1494 1487 1478 1467 1456 1444 1437 1432 1424 1415 1407 1398 1389 1380 1375 1370 1366 1362 1356 1350 1345 1341 1337 1334 1331 1329 1327 1323 1319 1314 1312 1310 1307 1306 1305 1304 1302 1299 1294 1290 1284 1278 1271 1266 1266 1268 1272 1276 1279 1280 1277 1272 1268 1262 1256 1249 1241 1231 1221 1213 1207 1198 1186 1167 1146 1128 1111 1091 1074 1057 1040 1020 996 978 966 946 916 898 885 872 862 846 827 811 797 782 766 752 739 724 709 700 691 681 671 659 647 634 624 616 611 607 604 601 597 593 590
1022 1023 1022 1019 1019 1021 1021 1018 1016 1015 1014 1012 1010 1007 1003 995 988 982 979 977 975 974 975 977 979 981 983 984 986 990 993 992 992 991 993 994 995 998 1003 1007 1011 1012 1014 1018 1021 1022 1022 1023 1027 1030 1031 1032 1033 1036 1040 1045 1050 1056 1060 1065 1070 1074 1080 1086 1092 1100 1110 1120 1129 1136 1142 1145 1151 1156 1162 1167 1172 1176 1181 1187 1195 1203 1213 1220 1229 1236 1244 1251 1257 1265 1274 1283 1292 1300 1312 1322 1331 1340 1349 1359 1373 1387 1396 1407 1416 1425 1434 1446 1455 1464 1475 1486 1496 1504 1513 1523 1533 1543 1551 1556 1558 1560 1558 1554 1547 1539 1529 1518 1505 1491 1483 1476 1471 1465 1454 1443 1433 1425 1417 1409 1401 1393 1383 1376 1370 1365 1361 1356 1351 1345 1339 1334 1330 1327 1324 1322 1321 1318 1313 1309 1305 1302 1300 1298 1296 1295 1295 1294 1291 1287 1283 1281 1276 1270 1266 1264 1265 1269 1274 1278 1279 1277 1272 1268 1264 1261 1254 1247 1237 1228 1219 1212 1207 1196 1178 1157 1138 1122 1105 1083 1059 1043 1024 999 981 959 936 925 911 895 881 866 851 834 817 804 790 773 758 745 734 722 711 701 690 678 665 651 639 628 620 612 607 603 599 595 591 589
1036 1037 1037 1034 1031 1031 1029 1027 1024 1021 1021 1018 1015 1012 1009 1003 994 986 981 976 975 974 975 976 978 980 979 981 983 987 990 990 990 990 991 992 993 997 1003 1008 1011 1012 1014 1016 1018 1020 1021 1024 1028 1030 1031 1032 1033 1036 1039 1044 1051 1055 1059 1062 1066 1073 1080 1086 1091 1098 1108 1118 1126 1132 1138 1144 1149 1153 1158 1163 1170 1174 1180 1185 1191 1203 1212 1219 1225 1231 1238 1245 1253 1262 1271 1279 1289 1297 1306 1318 1327 1337 1345 1355 1367 1379 1390 1400 1409 1419 1428 1438 1448 1457 1469 1482 1492 1503 1512 1521 1529 1538 1545 1550 1553 1551 1546 1538 1529 1520 1511 1501 1489 1477 1466 1460 1455 1447 1435 1424 1415 1408 1402 1395 1390 1384 1375 1366 1360 1355 1348 1342 1338 1333 1328 1322 1318 1315 1312 1310 1307 1303 1299 1297 1293 1289 1287 1286 1283 1281 1282 1280 1276 1272 1271 1271 1269 1265 1263 1261 1262 1265 1270 1274 1274 1273 1270 1268 1266 1262 1257 1249 1243 1235 1227 1219 1211 1204 1188 1166 1144 1126 1106 1089 1074 1056 1039 1017 991 972 955 941 924 907 892 876 856 838 822 808 794 780 764 751 738 728 717 701 689 679 667 655 642 631 622 614 608 604 601 596 590 588
1046 1048 1047 1044 1042 1042 1041 1038 1033 1028 1025 1022 1019 1015 1012 1005 997 988 981 977 975 975 976 977 978 978 979 979 980 983 986 988 989 990 991 991 992 995 1003 1009 1012 1013 1014 1015 1016 1018 1021 1024 1028 1030 1032 1033 1034 1036 1040 1046 1051 1054 1057 1061 1065 1071 1079 1086 1090 1096 1107 1118 1125 1131 1136 1142 1147 1150 1155 1162 1169 1174 1180 1184 1188 1198 1209 1216 1223 1228 1231 1239 1249 1259 1266 1274 1281 1292 1303 1313 1322 1330 1340 1349 1362 1373 1384 1393 1402 1412 1422 1433 1444 1454 1464 1476 1487 1498 1509 1518 1526 1532 1537 1539 1539 1532 1525 1519 1514 1505 1494 1486 1479 1468 1456 1442 1431 1422 1414 1407 1400 1392 1386 1382 1377 1371 1363 1356 1349 1342 1336 1329 1324 1320 1315 1309 1305 1303 1300 1297 1293 1290 1287 1283 1279 1277 1275 1271 1267 1266 1267 1264 1258 1254 1255 1256 1258 1258 1257 1255 1255 1258 1264 1267 1268 1266 1265 1263 1262 1256 1252 1248 1244 1242 1238 1228 1217 1206 1192 1174 1148 1120 1106 1095 1081 1066 1036 1003 983 971 960 948 930 911 897 882 868 846 827 814 804 788 771 758 745 729 712 699 689 677 664 653 643 633 623 617 612 607 603 598 593 590
1056 1057 1056 1052 1049 1049 1050 1048 1044 1038 1031 1026 1021 1016 1010 1002 994 987 982 978 976 977 977 977 978 978 979 979 978 980 983 985 986 989 990 990 991 995 1001 1006 1010 1012 1013 1014 1016 1018 1021 1025 1030 1032 1035 1035 1036 1037 1042 1047 1051 1054 1058 1061 1065 1071 1077 1084 1088 1095 1105 1115 1123 1129 1135 1140 1144 1146 1153 1162 1169 1174 1180 1183 1186 1192 1201 1210 1216 1221 1227 1234 1243 1254 1264 1271 1278 1287 1297 1307 1316 1325 1333 1344 1356 1366 1374 1385 1396 1406 1416 1428 1440 1451 1460 1472 1482 1491 1504 1515 1522 1527 1532 1533 1530 1520 1511 1505 1496 1484 1472 1463 1459 1454 1445 1430 1412 1403 1399 1391 1381 1374 1370 1367 1361 1355 1349 1342 1334 1329 1322 1316 1311 1307 1302 1297 1292 1290 1288 1285 1281 1277 1274 1271 1267 1261 1257 1255 1251 1247 1246 1244 1239 1236 1236 1238 1242 1244 1244 1242 1243 1245 1249 1255 1257 1257 1256 1254 1250 1245 1244 1245 1247 1248 1246 1238 1224 1209 1197 1180 1159 1135 1114 1101 1086 1067 1045 1018 994 980 962 939 921 909 898 886 867 846 832 821 809 795 782 767 751 736 721 706 693 679 665 654 647 639 629 622 617 611 604 598 593 590
1066 1067 1064 1063 1061 1058 1056 1054 1048 1041 1034 1030 1023 1015 1007 1000 993 987 982 978 977 976 977 977 977 977 977 977 977 977 979 981 983 984 987 988 991 995 999 1004 1008 1011 1013 1015 1017 1019 1022 1026 1030 1033 1035 1036 1037 1040 1044 1048 1051 1054 1058 1062 1067 1072 1078 1084 1089 1096 1105 1112 1119 1127 1133 1136 1140 1143 1149 1159 1166 1171 1176 1182 1185 1191 1197 1203 1210 1215 1221 1229 1239 1249 1261 1269 1275 1283 1292 1303 1313 1322 1330 1338 1348 1359 1369 1379 1392 1402 1412 1423 1435 1446 1457 1469 1477 1484 1495 1507 1515 1521 1527 1531 1523 1515 1506 1497 1484 1470 1460 1452 1442 1434 1425 1410 1398 1389 1381 1373 1364 1357 1352 1347 1345 1341 1334 1327 1321 1315 1310 1305 1300 1295 1290 1285 1280 1277 1274 1270 1267 1263 1260 1257 1253 1249 1244 1241 1233 1230 1227 1224 1221 1219 1219 1218 1221 1223 1223 1226 1227 1230 1234 1235 1240 1245 1244 1241 1237 1234 1234 1240 1246 1251 1249 1243 1231 1215 1200 1184 1165 1143 1125 1108 1091 1071 1048 1028 1009 989 968 948 928 916 905 886 865 847 834 823 813 799 787 773 757 743 729 712 694 683 674 660 650 643 636 628 619 613 605 599 594 591
1072 1072 1071 1068 1066 1064 1059 1054 1047 1040 1035 1028 1020 1012 1004 998 991 984 979 977 976 976 977 977 977 977 977 976 976 976 978 979 980 981 982 986 989 994 999 1002 1006 1008 1012 1015 1018 1021 1023 1026 1029 1031 1033 1035 1038 1040 1044 1047 1050 1055 1059 1063 1067 1072 1077 1083 1089 1097 1106 1112 1117 1122 1127 1132 1136 1139 1145 1154 1160 1165 1169 1175 1182 1188 1194 1201 1205 1210 1216 1224 1232 1243 1255 1264 1271 1279 1288 1299 1309 1317 1327 1336 1344 1355 1365 1376 1387 1398 1408 1419 1429 1440 1450 1462 1473 1481 1492 1502 1510 1516 1520 1523 1520 1511 1501 1489 1476 1462 1451 1440 1428 1413 1402 1394 1387 1378 1367 1355 1347 1341 1337 1333 1329 1324 1318 1312 1306 1301 1295 1290 1285 1281 1276 1271 1267 1262 1258 1254 1250 1248 1246 1241 1239 1237 1232 1224 1219 1215 1210 1205 1205 1204 1202 1201 1202 1203 1205 1206 1208 1212 1215 1218 1220 1224 1227 1224 1223 1221 1221 1227 1239 1246 1246 1243 1237 1222 1204 1187 1171 1153 1132 1110 1089 1069 1052 1034 1014 994 976 960 944 928 912 893 873 857 842 829 816 803 790 774 760 743 726 713 699 687 676 666 657 647 639 631 624 616 608 601 596 592
1079 1077 1075 1072 1067 1062 1058 1053 1046 1039 1031 1023 1015 1007 1000 994 988 981 977 975 974 976 978 978 979 979 978 978 977 976 977 978 979 979 981 984 986 991 995 999 1003 1006 1010 1014 1018 1021 1023 1025 1026 1028 1030 1033 1037 1040 1042 1045 1049 1053 1058 1061 1065 1070 1077 1082 1087 1093 1102 1108 1113 1117 1122 1127 1132 1136 1141 1147 1153 1158 1163 1168 1174 1182 1190 1195 1201 1206 1213 1221 1228 1237 1247 1256 1265 1275 1282 1293 1302 1311 1322 1334 1344 1354 1364 1374 1384 1394 1403 1413 1424 1433 1443 1455 1466 1475 1485 1495 1505 1512 1518 1521 1521 1510 1495 1480 1467 1452 1438 1426 1409 1395 1385 1378 1371 1357 1343 1332 1323 1320 1319 1313 1308 1304 1297 1293 1288 1284 1279 1273 1269 1264 1260 1256 1252 1248 1243 1239 1237 1235 1233 1231 1228 1224 1218 1212 1207 1202 1198 1195 1192 1189 1186 1183 1185 1185 1184 1184 1186 1189 1194 1197 1200 1203 1204 1204 1207 1208 1211 1214 1225 1237 1241 1239 1235 1225 1211 1195 1179 1161 1137 1112 1092 1076 1059 1039 1018 1002 982 961 944 932 918 899 882 865 852 839 822 806 791 774 755 739 726 715 704 692 680 668 659 650 643 635 626 618 612 605 598 592
1084 1082 1077 1071 1066 1060 1055 1049 1043 1036 1027 1018 1009 1002 996 989 983 977 975 974 974 976 978 979 979 979 979 978 977 975 975 976 977 979 981 983 985 989 993 997 1000 1006 1010 1015 1018 1021 1023 1024 1025 1026 1030 1034 1038 1040 1043 1046 1049 1053 1057 1061 1065 1071 1078 1084 1087 1092 1098 1104 1108 1114 1119 1124 1129 1134 1137 1142 1147 1154 1157 1163 1169 1175 1182 1190 1195 1202 1209 1216 1224 1232 1240 1249 1260 1270 1278 1287 1297 1306 1318 1330 1341 1353 1364 1371 1379 1389 1399 1407 1417 1427 1436 1448 1458 1468 1478 1488 1495 1504 1512 1516 1513 1504 1489 1474 1457 1438 1422 1406 1394 1383 1373 1362 1349 1336 1323 1313 1309 1303 1296 1289 1285 1282 1278 1275 1273 1269 1264 1259 1254 1251 1248 1243 1238 1234 1231 1229 1227 1225 1223 1221 1218 1212 1205 1198 1192 1189 1185 1179 1176 1173 1169 1167 1165 1167 1166 1166 1167 1171 1173 1177 1181 1182 1185 1187 1191 1195 1196 1204 1210 1223 1228 1231 1228 1222 1210 1199 1184 1164 1140 1119 1098 1086 1071 1048 1027 1006 986 969 953 939 923 904 889 876 859 842 829 815 794 773 758 744 730 717 707 697 685 673 660 651 645 639 630 622 614 607 599 591
1088 1083 1078 1072 1065 1059 1053 1046 1039 1030 1021 1011 1005 999 991 983 978 975 973 972 973 974 976 976 977 977 977 977 976 974 973 974 976 978 981 983 985 990 995 999 1002 1004 1009 1013 1016 1019 1022 1024 1026 1028 1031 1036 1039 1041 1043 1047 1050 1053 1057 1061 1065 1073 1080 1086 1089 1093 1100 1105 1110 1116 1122 1130 1136 1139 1142 1144 1149 1154 1162 1165 1171 1175 1181 1187 1194 1201 1208 1216 1222 1229 1235 1246 1258 1268 1277 1287 1296 1304 1316 1328 1339 1351 1362 1369 1376 1385 1395 1404 1413 1421 1430 1440 1451 1461 1471 1481 1489 1497 1504 1509 1504 1496 1483 1467 1451 1428 1409 1395 1383 1372 1362 1353 1337 1321 1310 1301 1295 1288 1276 1266 1265 1262 1259 1257 1256 1253 1249 1246 1243 1240 1238 1232 1226 1223 1221 1220 1218 1215 1211 1208 1204 1199 1192 1185 1179 1174 1169 1163 1158 1156 1155 1154 1153 1153 1152 1152 1153 1154 1154 1157 1160 1162 1166 1170 1174 1176 1179 1185 1193 1201 1212 1217 1217 1212 1206 1198 1182 1163 1143 1123 1107 1092 1074 1055 1033 1014 999 982 964 947 928 911 895 881 866 848 833 819 802 782 763 749 736 723 709 698 687 675 664 654 647 640 634 626 618 610 599 591
1089 1084 1079 1074 1066 1058 1050 1041 1034 1027 1017 1008 1003 998 989 981 976 974 971 971 972 974 974 975 975 976 975 975 974 972 972 973 976 978 982 986 989 993 998 1000 1001 1004 1008 1010 1012 1015 1019 1022 1025 1028 1032 1036 1039 1040 1042 1045 1049 1052 1057 1063 1071 1076 1083 1087 1092 1098 1105 1111 1118 1124 1131 1138 1144 1151 1153 1155 1158 1165 1171 1177 1181 1185 1187 1192 1200 1208 1219 1227 1233 1238 1245 1258 1265 1271 1280 1292 1300 1307 1317 1328 1338 1352 1361 1369 1375 1383 1394 1403 1412 1420 1427 1437 1447 1455 1465 1474 1483 1491 1498 1500 1499 1493 1484 1466 1442 1424 1408 1395 1383 1369 1356 1340 1324 1310 1297 1288 1280 1269 1260 1253 1248 1246 1243 1239 1236 1234 1231 1228 1227 1225 1222 1217 1215 1213 1212 1213 1210 1205 1199 1194 1190 1185 1180 1174 1168 1163 1155 1149 1145 1143 1142 1141 1139 1138 1139 1139 1137 1137 1139 1141 1144 1146 1148 1151 1155 1158 1159 1165 1175 1184 1191 1200 1205 1204 1201 1191 1179 1165 1145 1123 1107 1092 1076 1059 1039 1019 1002 986 970 954 936 920 908 891 875 858 841 827 813 794 776 757 742 727 713 701 690 678 667 657 648 639 634 628 620 613 605 595
1092 1086 1081 1073 1065 1054 1045 1037 1030 1023 1017 1009 1001 995 987 980 975 972 971 970 972 973 974 974 975 974 973 973 972 970 970 971 975 978 982 988 992 996 998 1000 1002 1005 1007 1009 1011 1013 1017 1021 1023 1025 1028 1032 1036 1039 1042 1045 1048 1052 1058 1066 1076 1082 1086 1091 1096 1102 1108 1114 1122 1130 1135 1142 1150 1156 1161 1163 1168 1173 1179 1185 1190 1193 1195 1202 1213 1223 1232 1241 1247 1254 1263 1275 1280 1283 1289 1298 1305 1310 1319 1330 1341 1353 1365 1372 1378 1385 1393 1402 1411 1419 1426 1434 1442 1451 1461 1472 1480 1487 1493 1496 1493 1488 1485 1463 1436 1424 1410 1395 1378 1364 1349 1332 1315 1302 1291 1278 1265 1254 1245 1240 1237 1233 1229 1225 1222 1218 1215 1214 1212 1209 1206 1203 1199 1197 1195 1196 1198 1195 1189 1183 1179 1174 1170 1166 1161 1153 1145 1138 1134 1132 1129 1128 1125 1123 1122 1123 1123 1124 1127 1129 1128 1129 1131 1134 1139 1143 1147 1150 1157 1167 1174 1182 1191 1194 1192 1186 1177 1163 1146 1127 1109 1094 1079 1063 1043 1023 1005 987 970 951 937 926 912 897 877 859 847 836 823 807 787 764 746 728 716 706 694 682 672 662 650 640 634 629 622 615 608 599
1093 1086 1079 1071 1060 1051 1042 1033 1025 1019 1013 1006 999 990 982 977 973 971 970 971 972 972 973 973 973 973 973 972 971 970 969 971 973 977 983 989 994 996 998 1000 1002 1005 1006 1008 1010 1012 1015 1018 1022 1022 1024 1028 1032 1037 1042 1047 1051 1054 1059 1067 1078 1084 1090 1095 1100 1106 1110 1114 1121 1128 1136 1143 1150 1157 1162 1167 1172 1178 1184 1190 1196 1200 1204 1214 1227 1238 1248 1256 1262 1270 1282 1289 1292 1294 1302 1309 1316 1320 1326 1336 1346 1357 1368 1376 1383 1390 1396 1403 1410 1418 1425 1434 1442 1450 1460 1469 1477 1485 1490 1493 1492 1488 1476 1460 1442 1426 1411 1393 1377 1362 1346 1331 1318 1305 1287 1270 1260 1250 1239 1229 1224 1219 1214 1210 1207 1204 1202 1200 1197 1192 1185 1184 1184 1181 1178 1180 1182 1180 1179 1175 1171 1167 1162 1157 1151 1145 1136 1131 1126 1122 1119 1115 1112 1111 1111 1110 1111 1112 1114 1115 1115 1115 1117 1120 1125 1130 1135 1140 1144 1148 1154 1162 1173 1180 1182 1179 1170 1158 1141 1127 1112 1098 1083 1064 1043 1025 1009 994 976 957 941 928 914 894 877 865 852 840 830 818 795 771 751 734 719 708 698 686 675 666 657 646 636 630 624 617 610 602
1093 1085 1077 1067 1056 1046 1038 1030 1023 1016 1010 1003 995 987 980 974 971 970 969 969 970 970 970 971 971 972 972 972 972 971 970 971 973 977 983 990 994 996 998 999 1001 1003 1004 1005 1009 1013 1015 1019 1021 1022 1025 1027 1029 1032 1039 1045 1049 1054 1058 1066 1076 1084 1089 1094 1099 1105 1110 1116 1122 1129 1138 1146 1154 1159 1165 1170 1176 1182 1186 1192 1199 1206 1214 1224 1237 1248 1260 1271 1281 1286 1295 1299 1302 1308 1313 1324 1333 1336 1341 1347 1354 1364 1373 1382 1389 1395 1401 1406 1411 1418 1427 1434 1444 1453 1462 1469 1475 1482 1489 1491 1489 1485 1473 1458 1443 1423 1405 1391 1376 1357 1342 1330 1314 1296 1281 1270 1262 1250 1233 1221 1209 1201 1197 1195 1192 1190 1189 1188 1183 1176 1170 1167 1167 1166 1164 1164 1165 1165 1164 1162 1159 1155 1150 1146 1142 1135 1128 1123 1119 1113 1109 1101 1099 1098 1098 1099 1099 1099 1101 1103 1105 1107 1108 1111 1114 1118 1122 1127 1130 1134 1137 1145 1156 1167 1170 1168 1162 1150 1139 1125 1110 1098 1082 1066 1049 1029 1016 999 980 962 946 933 922 905 888 873 858 845 833 817 801 783 763 741 723 713 703 690 679 669 658 647 638 630 624 618 610 603
1090 1084 1076 1067 1056 1046 1037 1029 1022 1015 1006 999 991 984 980 975 972 970 970 969 969 968 968 968 969 969 970 970 971 970 969 970 973 978 982 988 992 995 997 998 999 1000 1001 1003 1006 1010 1013 1016 1020 1024 1027 1028 1029 1032 1037 1043 1048 1054 1059 1065 1073 1081 1088 1093 1098 1104 1112 1119 1125 1132 1139 1147 1156 1163 1169 1174 1180 1184 1189 1193 1200 1210 1220 1229 1243 1258 1271 1283 1291 1301 1306 1313 1317 1323 1332 1340 1344 1347 1353 1360 1368 1376 1383 1389 1394 1402 1406 1411 1415 1422 1429 1439 1449 1456 1464 1469 1475 1482 1485 1485 1483 1478 1469 1456 1437 1419 1404 1390 1374 1359 1343 1331 1319 1300 1282 1273 1263 1250 1235 1215 1200 1193 1189 1185 1182 1179 1177 1173 1167 1162 1157 1155 1154 1151 1150 1150 1150 1150 1148 1146 1142 1140 1137 1135 1131 1125 1120 1115 1111 1106 1099 1093 1089 1087 1087 1086 1087 1088 1090 1093 1095 1097 1100 1102 1104 1106 1112 1115 1117 1120 1126 1133 1141 1151 1157 1158 1154 1146 1134 1119 1103 1091 1080 1067 1049 1031 1017 1000 985 969 953 940 926 910 894 880 865 851 837 824 809 789 769 753 735 718 707 695 682 671 663 652 641 632 625 617 610 604
1085 1080 1074 1066 1058 1047 1037 1028 1020 1013 1005 998 991 985 981 976 972 970 969 968 967 966 966 966 967 967 967 968 969 969 969 971 974 978 981 985 989 993 995 996 997 998 999 1002 1005 1008 1010 1013 1016 1021 1025 1027 1028 1031 1036 1041 1046 1052 1060 1066 1073 1082 1090 1094 1099 1104 1112 1121 1127 1132 1140 1147 1157 1164 1171 1177 1181 1184 1191 1198 1206 1214 1222 1233 1249 1264 1276 1289 1298 1308 1317 1326 1332 1341 1348 1352 1356 1363 1370 1377 1383 1391 1393 1399 1404 1411 1416 1420 1423 1429 1438 1445 1453 1461 1467 1473 1478 1482 1484 1482 1478 1470 1462 1449 1434 1419 1405 1392 1376 1360 1346 1335 1320 1302 1285 1271 1262 1250 1230 1213 1203 1194 1188 1180 1174 1167 1162 1157 1155 1149 1145 1143 1141 1135 1134 1134 1134 1131 1130 1129 1127 1125 1123 1120 1118 1113 1110 1106 1104 1098 1091 1084 1081 1078 1076 1077 1079 1080 1082 1084 1085 1087 1089 1091 1093 1096 1099 1103 1103 1107 1112 1121 1126 1133 1142 1146 1146 1139 1127 1113 1098 1089 1078 1066 1053 1039 1024 1010 994 979 962 946 932 915 898 881 865 850 837 824 813 800 780 760 740 722 709 696 685 675 667 656 643 634 627 619 610 604
1082 1076 1072 1065 1056 1048 1038 1027 1020 1015 1007 998 992 987 981 976 972 971 969 966 964 963 964 966 966 966 967 966 967 968 970 972 975 978 980 984 988 991 993 994 995 996 997 997 1000 1003 1006 1008 1011 1016 1021 1024 1026 1031 1037 1043 1046 1050 1057 1065 1074 1083 1091 1097 1102 1107 1112 1120 1127 1132 1138 1145 1154 1162 1169 1176 1180 1183 1190 1201 1209 1217 1226 1238 1253 1264 1275 1287 1300 1312 1323 1335 1344 1352 1360 1365 1371 1379 1385 1390 1395 1399 1404 1410 1417 1424 1427 1430 1433 1440 1446 1453 1459 1467 1473 1479 1484 1488 1487 1482 1474 1466 1456 1442 1427 1412 1399 1386 1372 1358 1343 1330 1313 1296 1284 1272 1261 1249 1235 1221 1208 1196 1185 1176 1169 1162 1155 1149 1143 1140 1135 1132 1126 1121 1119 1118 1116 1114 1112 1110 1108 1107 1106 1106 1104 1101 1098 1095 1093 1089 1083 1077 1073 1070 1068 1070 1071 1072 1073 1075 1076 1078 1080 1083 1084 1086 1088 1090 1091 1093 1098 1101 1109 1116 1122 1132 1135 1134 1125 1112 1097 1086 1075 1065 1055 1043 1028 1010 993 977 961 948 936 918 897 876 860 849 836 824 812 797 780 763 748 733 716 701 689 679 670 659 646 635 627 618 611 602
1082 1075 1069 1062 1054 1044 1036 1027 1021 1013 1005 998 992 985 981 976 974 972 970 966 962 961 960 961 962 964 966 967 967 967 969 972 976 978 980 983 988 990 991 993 994 995 996 997 999 1001 1003 1005 1008 1012 1017 1021 1024 1030 1037 1042 1046 1049 1053 1061 1072 1081 1089 1097 1104 1107 1112 1120 1125 1130 1135 1143 1151 1158 1167 1174 1178 1183 1190 1199 1207 1216 1228 1242 1255 1267 1278 1289 1300 1311 1323 1336 1347 1355 1361 1369 1378 1384 1389 1394 1400 1406 1413 1420 1427 1429 1432 1435 1438 1444 1451 1457 1463 1469 1477 1483 1490 1495 1492 1486 1477 1467 1453 1438 1424 1409 1395 1381 1367 1354 1340 1323 1307 1296 1284 1271 1260 1253 1241 1222 1209 1202 1195 1188 1180 1173 1163 1152 1145 1139 1132 1126 1118 1114 1111 1108 1105 1100 1096 1093 1092 1091 1090 1090 1089 1087 1084 1083 1081 1078 1074 1070 1066 1063 1061 1061 1063 1063 1064 1064 1066 1067 1071 1072 1073 1072 1074 1077 1080 1081 1083 1086 1091 1099 1104 1113 1121 1123 1121 1109 1096 1084 1074 1064 1053 1043 1026 1008 991 977 959 945 935 921 905 885 865 851 837 822 808 794 779 768 755 740 724 710 696 682 670 658 646 636 626 617 610 602
1082 1075 1066 1056 1046 1039 1032 1025 1018 1012 1005 998 992 986 982 979 975 971 968 965 961 959 958 958 959 961 964 965 966 966 968 970 973 977 979 983 987 989 990 991 992 993 994 997 1000 1003 1004 1005 1008 1011 1015 1019 1023 1029 1035 1040 1044 1047 1051 1057 1068 1078 1086 1093 1100 1105 1111 1117 1122 1126 1131 1137 1146 1155 1163 1171 1176 1182 1191 1198 1205 1216 1229 1242 1256 1267 1279 1289 1300 1310 1319 1332 1344 1351 1358 1364 1374 1381 1386 1391 1397 1404 1412 1419 1422 1425 1431 1434 1438 1443 1451 1457 1464 1468 1477 1486 1494 1499 1497 1492 1481 1470 1456 1442 1427 1412 1397 1381 1367 1352 1340 1328 1319 1307 1295 1287 1279 1267 1254 1242 1231 1224 1217 1207 1197 1187 1177 1169 1157 1144 1136 1127 1121 1113 1109 1103 1098 1092 1087 1084 1082 1079 1078 1076 1074 1072 1071 1069 1067 1066 1064 1061 1058 1056 1053 1052 1053 1054 1055 1056 1056 1056 1057 1058 1056 1055 1055 1057 1059 1062 1067 1070 1077 1084 1091 1100 1106 1112 1112 1106 1095 1083 1074 1064 1053 1038 1022 1008 995 979 963 947 933 922 910 894 873 853 837 823 811 798 784 769 755 741 728 715 698 687 677 665 653 642 631 618 610 603
1082 1072 1060 1051 1043 1037 1032 1025 1017 1012 1006 999 992 987 983 980 976 972 968 964 962 959 958 958 958 959 959 961 962 963 965 969 972 974 977 980 984 987 989 989 990 990 992 995 1000 1003 1005 1007 1011 1013 1018 1020 1022 1028 1034 1037 1041 1045 1050 1057 1065 1075 1083 1090 1095 1102 1109 1113 1117 1121 1127 1134 1142 1151 1161 1168 1174 1180 1189 1197 1206 1217 1229 1241 1253 1265 1278 1288 1298 1307 1317 1325 1332 1340 1348 1355 1362 1371 1379 1383 1388 1395 1402 1408 1413 1416 1423 1429 1434 1439 1446 1454 1459 1465 1476 1485 1494 1499 1499 1497 1488 1474 1461 1448 1432 1416 1402 1389 1375 1359 1345 1335 1329 1322 1312 1302 1294 1285 1271 1258 1251 1242 1232 1221 1210 1201 1193 1184 1177 1163 1148 1140 1133 1124 1115 1108 1101 1094 1088 1082 1077 1073 1069 1066 1061 1059 1056 1054 1053 1052 1051 1049 1048 1045 1043 1040 1040 1043 1045 1044 1044 1045 1044 1043 1043 1041 1040 1040 1042 1042 1047 1053 1061 1070 1079 1088 1094 1100 1102 1099 1091 1084 1076 1065 1052 1038 1024 1012 1001 987 970 953 937 921 910 897 877 856 841 826 813 800 787 773 756 741 726 713 701 690 678 667 657 646 633 621 609 602
1082 1073 1062 1051 1044 1039 1033 1028 1021 1013 1006 998 992 987 983 979 976 971 966 963 961 960 959 958 958 957 958 959 961 962 964 967 971 973 974 975 978 982 985 987 988 989 992 996 999 1002 1005 1009 1013 1016 1020 1022 1022 1026 1031 1034 1038 1042 1047 1054 1064 1071 1079 1086 1092 1098 1103 1108 1112 1117 1123 1132 1140 1147 1158 1166 1173 1179 1188 1196 1205 1215 1226 1237 1249 1261 1273 1283 1292 1301 1310 1316 1322 1327 1334 1341 1349 1355 1363 1372 1378 1385 1391 1396 1400 1406 1413 1421 1426 1431 1438 1444 1451 1457 1468 1480 1489 1495 1499 1500 1495 1485 1471 1452 1436 1425 1412 1400 1391 1383 1364 1350 1341 1333 1323 1312 1303 1294 1283 1271 1257 1248 1240 1230 1223 1215 1206 1193 1180 1169 1160 1152 1145 1136 1128 1120 1114 1107 1099 1091 1083 1078 1072 1062 1054 1049 1045 1042 1040 1039 1039 1038 1035 1031 1029 1027 1028 1031 1033 1032 1032 1032 1031 1029 1028 1027 1027 1028 1030 1032 1033 1037 1045 1057 1065 1073 1076 1080 1084 1083 1083 1081 1077 1068 1055 1041 1030 1021 1009 996 980 960 938 923 913 901 886 869 852 836 819 804 791 778 761 740 723 714 704 693 681 669 659 649 637 625 615 605
1082 1074 1063 1052 1044 1036 1033 1026 1020 1014 1008 1000 993 987 981 977 974 968 962 960 959 959 960 960 959 958 958 959 961 963 965 968 970 969 970 972 975 979 982 985 986 988 992 995 996 999 1005 1010 1013 1016 1019 1021 1023 1025 1028 1031 1034 1039 1044 1050 1059 1068 1076 1082 1087 1091 1097 1102 1108 1114 1122 1130 1138 1145 1155 1166 1172 1179 1188 1195 1201 1210 1222 1232 1243 1255 1266 1274 1282 1290 1298 1305 1309 1314 1321 1328 1334 1342 1348 1354 1363 1368 1375 1383 1388 1394 1401 1408 1414 1421 1427 1435 1441 1449 1458 1470 1480 1488 1495 1499 1499 1492 1480 1463 1445 1435 1427 1417 1408 1394 1383 1370 1356 1349 1342 1331 1319 1307 1297 1285 1273 1261 1251 1244 1235 1228 1217 1207 1194 1180 1172 1164 1159 1154 1144 1136 1125 1115 1108 1100 1093 1086 1078 1069 1059 1049 1042 1037 1034 1030 1030 1027 1023 1019 1016 1015 1015 1017 1021 1021 1018 1016 1014 1013 1015 1014 1012 1013 1018 1021 1022 1022 1025 1035 1047 1055 1060 1062 1066 1072 1074 1078 1077 1068 1057 1046 1037 1027 1017 1004 989 969 947 931 917 906 894 876 858 843 827 812 799 780 760 742 726 713 703 691 680 669 659 648 639 631 620 609
1082 1073 1062 1051 1043 1037 1032 1025 1017 1014 1009 1001 993 987 981 975 970 966 962 959 959 959 961 961 960 959 959 960 961 962 965 966 967 967 967 970 974 977 979 982 985 987 990 993 994 996 1004 1010 1014 1015 1017 1018 1021 1025 1027 1030 1033 1037 1041 1045 1053 1063 1071 1078 1082 1086 1091 1098 1105 1113 1119 1127 1136 1144 1154 1163 1172 1178 1183 1191 1198 1206 1218 1227 1237 1247 1257 1264 1271 1279 1286 1293 1297 1301 1306 1313 1321 1327 1334 1338 1343 1350 1359 1367 1376 1383 1389 1396 1404 1411 1419 1427 1435 1441 1451 1461 1470 1479 1488 1495 1497 1494 1489 1473 1453 1444 1439 1433 1425 1411 1399 1387 1376 1369 1362 1350 1337 1327 1317 1305 1292 1280 1274 1264 1250 1235 1225 1215 1205 1197 1187 1178 1171 1163 1154 1145 1134 1123 1115 1110 1104 1097 1087 1077 1068 1059 1050 1042 1035 1028 1024 1022 1015 1011 1008 1008 1004 1004 1007 1008 1004 1000 999 1001 1001 1000 1000 999 1000 1004 1007 1007 1011 1017 1027 1035 1040 1047 1053 1059 1067 1073 1075 1070 1062 1053 1042 1032 1023 1012 997 976 954 936 923 912 897 879 860 843 832 817 798 780 763 747 731 716 702 691 681 673 663 652 642 633 622 613
1080 1070 1061 1052 1043 1038 1032 1024 1018 1012 1005 999 992 987 980 973 967 964 962 961 961 961 962 961 960 959 959 959 960 961 963 964 965 965 967 969 972 974 976 979 983 986 989 991 993 995 1001 1008 1010 1014 1015 1017 1020 1024 1027 1030 1034 1037 1040 1043 1047 1056 1065 1073 1079 1083 1087 1095 1102 1109 1116 1123 1133 1143 1152 1161 1169 1176 1182 1188 1195 1203 1212 1222 1232 1240 1246 1253 1262 1268 1274 1280 1285 1289 1293 1300 1308 1314 1319 1325 1331 1336 1343 1353 1361 1370 1378 1384 1393 1402 1411 1420 1427 1434 1442 1453 1461 1471 1482 1491 1493 1493 1491 1486 1474 1463 1452 1442 1431 1419 1410 1402 1391 1380 1368 1357 1347 1338 1326 1316 1307 1298 1285 1271 1258 1245 1231 1223 1217 1207 1198 1188 1179 1169 1159 1153 1145 1138 1131 1126 1119 1111 1100 1091 1082 1072 1061 1052 1043 1035 1028 1023 1018 1014 1009 1004 999 996 997 997 993 991 989 987 985 984 983 981 983 986 988 992 996 1003 1008 1013 1019 1027 1035 1045 1056 1064 1069 1071 1066 1060 1048 1036 1026 1016 1002 986 965 943 929 918 905 888 860 839 821 804 793 781 765 748 731 717 704 693 685 676 664 654 645 636 626 615
1083 1072 1062 1053 1044 1035 1029 1023 1018 1012 1002 996 991 986 980 973 966 963 962 961 961 961 960 959 957 957 957 957 959 960 961 963 964 965 967 969 970 970 972 976 980 984 988 990 992 993 996 1002 1006 1010 1013 1017 1020 1023 1026 1030 1034 1037 1040 1042 1044 1050 1060 1068 1075 1079 1085 1091 1099 1108 1116 1122 1129 1141 1150 1159 1167 1174 1180 1186 1193 1200 1209 1216 1223 1230 1236 1242 1251 1257 1262 1267 1272 1277 1283 1288 1295 1301 1306 1313 1321 1327 1334 1340 1348 1356 1366 1375 1382 1391 1400 1410 1417 1423 1433 1444 1454 1464 1476 1486 1490 1492 1491 1487 1481 1470 1458 1446 1435 1423 1410 1399 1387 1374 1363 1350 1340 1334 1328 1320 1307 1294 1283 1268 1258 1246 1235 1226 1217 1212 1203 1191 1182 1173 1166 1159 1154 1149 1144 1139 1134 1126 1116 1105 1097 1090 1080 1070 1062 1052 1042 1033 1030 1024 1019 1009 1000 996 994 989 987 985 981 977 974 971 969 969 970 972 975 977 980 982 985 991 998 1007 1017 1028 1040 1052 1062 1066 1065 1059 1052 1042 1032 1020 1007 995 981 956 932 924 915 882 850 834 820 808 795 782 767 752 738 726 713 701 689 677 666 655 647 640 630 620
