ncols        465
nrows        46
xllcorner    -71.6534722222
yllcorner    104.089027778
cellsize     30
643 646 652 659 666 675 683 689 694 701 707 710 712 713 714 714 714 713 711 708 707 707 708 708 708 708 705 699 694 690 686 682 676 665 654 645 638 633 626 619 612 606 599 591 587 583 581 580 576 571 567 562 559 557 555 551 546 541 537 534 530 526 524 525 523 519 517 515 514 513 512 509 507 504 503 503 505 506 507 507 509 510 511 511 511 512 512 513 514 513 513 514 515 517 519 523 527 529 531 533 535 540 545 547 549 550 552 553 555 556 557 558 561 560 560 557 554 549 545 540 536 531 527 524 520 517 511 506 499 495 493 491 488 486 487 488 486 482 479 477 476 477 474 472 469 466 461 457 453 450 448 444 440 436 434 434 433 433 432 433 434 437 442 446 448 449 448 449 448 446 445 444 444 444 445 444 443 439 438 439 440 438 438 437 442 449 453 457 460 462 466 469 471 472 472 473 472 471 468 465 463 464 465 467 468 469 469 471 473 477 480 482 484 487 491 496 500 503 506 510 513 516 520 524 529 534 539 541 543 547 552 558 563 568 573 579 586 593 599 603 608 613 617 621 626 632 638 640 643 647 651 658 663 666 669 674 678 683 690 694 698 701 706 713 720 727 733 739 743 746 753 763 775 785 794 803 805 802 800 797 795 788 781 777 774 771 766 763 762 761 757 754 755 755 755 755 756 759 760 763 767 770 774 775 778 783 787 790 793 799 802 804 807 813 823 829 832 837 845 852 857 859 863 870 877 883 889 898 903 912 924 933 943 955 966 977 989 1001 1010 1023 1041 1058 1076 1086 1091 1094 1098 1101 1105 1112 1118 1121 1124 1129 1133 1136 1141 1146 1150 1153 1155 1159 1161 1164 1163 1162 1163 1163 1164 1164 1162 1158 1155 1151 1148 1143 1136 1128 1121 1113 1106 1096 1086 1079 1072 1067 1063 1059 1056 1053 1048 1041 1038 1034 1026 1010 996 986 979 970 960 947 936 929 922 912 902 896 888 876 867 860 852 842 830 820 814 809 807 807 808 809 806 806 805 806 805 803 801 797 792 786 782 778 773 768 764 758 750 743 736 730 726 723 722 718 715 713 712 710 708 707 706 705 705 706 705 703 700 697 694 692 690 688 686
654 656 662 669 676 683 691 695 702 710 716 720 722 724 725 725 725 724 722 720 717 716 716 715 713 713 709 703 695 688 681 677 669 658 648 641 636 629 622 616 608 603 599 592 585 581 577 575 572 568 565 562 559 557 554 551 545 540 536 532 528 525 525 525 523 521 517 515 513 511 510 508 506 504 504 504 507 509 510 510 512 514 514 513 512 512 514 516 518 519 519 520 521 523 523 526 530 534 537 539 543 547 551 555 556 557 559 563 566 567 569 573 570 570 569 568 564 558 553 551 546 541 534 532 529 526 522 516 509 504 499 497 495 493 492 490 489 488 486 484 483 481 478 475 473 470 467 465 462 458 454 451 448 443 441 441 439 436 434 430 431 433 437 442 445 446 445 445 445 444 442 440 438 437 437 439 439 441 442 443 443 444 441 440 443 448 452 454 457 459 462 465 467 469 471 471 471 470 467 465 465 466 468 470 471 471 472 474 477 481 484 486 486 490 493 497 501 504 506 509 512 516 520 524 527 532 537 542 545 547 552 558 564 570 577 582 587 592 598 604 608 614 620 625 629 636 641 645 649 652 657 662 668 673 676 680 684 690 696 700 703 708 714 720 727 734 741 748 755 759 765 774 783 789 795 797 796 791 786 782 775 771 766 761 755 752 749 747 745 742 740 738 736 737 738 739 739 744 747 752 755 755 756 759 762 766 769 770 772 777 784 788 792 799 804 811 815 820 824 832 838 842 848 856 863 868 877 887 894 898 909 922 931 939 950 957 971 983 995 1010 1023 1039 1055 1068 1078 1086 1090 1095 1101 1109 1116 1121 1125 1130 1134 1137 1142 1146 1150 1154 1157 1160 1162 1163 1163 1162 1162 1163 1162 1161 1159 1157 1154 1151 1149 1146 1140 1134 1128 1122 1114 1107 1098 1092 1093 1090 1084 1081 1082 1076 1065 1058 1054 1046 1036 1021 1005 995 986 975 964 953 942 936 928 917 908 900 893 885 877 869 863 855 845 834 827 822 820 820 819 819 818 816 815 816 816 815 811 808 803 798 791 785 781 778 775 769 763 756 750 741 734 730 728 726 725 722 722 721 718 714 714 714 715 716 715 714 713 711 707 701 697 695 693
666 670 674 679 685 691 695 701 710 719 724 726 729 731 732 731 730 730 728 724 722 721 720 718 715 710 708 703 693 683 676 671 663 653 643 635 631 625 618 611 606 601 596 591 586 580 574 571 569 567 564 562 560 557 554 551 546 542 536 532 528 526 525 526 524 520 516 514 514 511 511 509 509 507 507 509 512 515 514 514 514 515 515 515 515 517 518 519 521 522 524 526 527 529 530 531 533 536 542 546 550 554 558 561 563 565 568 573 576 579 581 582 581 579 577 577 575 571 567 563 557 550 545 541 538 535 529 524 517 512 508 504 503 501 498 495 493 492 491 489 485 483 481 479 475 471 470 469 466 461 458 457 455 453 449 448 447 444 440 434 430 430 432 436 440 441 441 441 441 439 436 434 432 432 434 437 439 441 442 443 445 445 445 443 444 447 451 453 456 457 459 462 464 465 467 469 469 468 466 463 465 469 472 472 472 472 473 475 479 484 487 490 493 495 497 500 503 506 508 509 511 515 519 523 526 529 534 540 544 548 553 559 564 571 578 585 589 593 600 606 611 617 622 626 630 636 642 648 653 658 664 670 674 676 681 686 692 698 704 707 710 716 722 729 735 742 748 756 760 764 771 779 786 789 788 788 786 782 777 769 759 753 751 747 739 736 733 732 732 729 727 725 724 724 725 726 729 732 733 737 739 741 741 745 749 750 751 755 757 763 770 777 781 783 787 793 799 805 809 816 822 828 836 846 853 862 870 878 882 888 894 906 919 929 939 948 959 970 981 990 1003 1013 1026 1042 1054 1066 1076 1084 1095 1103 1111 1118 1125 1129 1134 1137 1141 1145 1148 1152 1157 1159 1161 1162 1161 1162 1161 1161 1161 1160 1159 1157 1155 1153 1149 1146 1143 1139 1136 1132 1126 1119 1115 1112 1109 1105 1104 1106 1103 1093 1082 1073 1065 1056 1042 1027 1014 1002 992 982 971 960 953 946 938 928 919 911 904 894 887 879 871 863 855 847 840 837 836 834 831 830 829 828 826 825 825 824 822 820 818 813 807 800 791 788 784 779 773 766 758 754 747 741 738 738 736 732 729 728 725 723 722 725 727 725 723 722 721 720 715 709 704 701 699
676 680 686 692 696 700 704 712 720 727 730 733 735 738 738 737 735 733 732 730 725 722 720 719 714 709 702 694 683 673 666 659 653 646 638 631 626 620 614 609 603 598 595 592 587 582 576 571 569 567 565 562 559 555 553 549 546 541 536 532 530 529 528 526 522 518 517 518 518 518 517 517 514 513 513 515 516 518 520 520 520 520 520 522 523 524 523 523 523 524 527 529 533 535 536 538 541 543 547 553 558 562 567 569 571 575 579 582 586 587 589 590 591 590 589 587 585 583 579 574 567 561 555 550 546 541 535 529 524 521 519 516 511 508 503 501 500 499 497 493 490 488 486 484 480 476 473 472 471 469 464 462 461 458 455 453 451 449 445 439 434 432 432 434 434 434 434 435 434 431 429 429 429 429 432 435 437 440 441 442 443 445 445 444 444 444 447 450 452 454 457 459 461 463 464 466 466 464 460 460 462 467 470 472 472 472 473 475 479 483 487 492 495 497 498 501 504 505 505 506 509 513 517 520 525 528 531 535 540 546 553 560 564 570 578 585 589 595 603 609 613 617 622 627 632 637 643 650 656 661 668 675 680 683 689 695 701 705 710 713 716 722 727 733 738 743 751 758 762 767 772 778 781 783 778 774 768 766 763 756 747 740 735 729 722 717 716 717 715 710 710 711 713 714 714 717 720 720 721 722 726 728 728 731 736 737 740 744 748 752 757 762 766 769 773 781 787 791 797 804 809 814 824 836 845 855 861 866 870 875 885 896 905 916 925 935 946 959 969 973 980 990 999 1018 1029 1048 1057 1072 1085 1099 1107 1113 1120 1126 1132 1137 1140 1143 1146 1149 1154 1158 1160 1160 1160 1160 1160 1159 1159 1160 1159 1159 1158 1156 1152 1148 1146 1144 1141 1138 1134 1130 1126 1126 1125 1123 1120 1117 1113 1108 1095 1080 1070 1061 1047 1035 1023 1011 998 986 980 974 967 960 951 942 936 927 915 905 897 889 881 874 869 863 857 853 852 849 846 843 840 839 839 841 840 838 836 833 831 826 820 814 807 800 793 786 779 773 767 761 760 755 751 750 744 739 737 735 733 733 736 737 735 734 732 731 729 725 720 714 711 708 703
691 693 695 699 705 709 714 720 727 733 736 740 743 746 745 742 738 736 734 730 725 721 717 712 707 700 691 679 668 662 657 651 646 640 634 627 621 616 612 608 602 596 593 590 587 582 578 573 568 565 563 561 558 554 552 548 543 539 535 532 533 532 531 527 522 518 518 521 523 524 525 524 523 522 521 521 523 525 526 526 525 525 526 529 530 531 532 529 528 529 531 534 536 539 541 544 548 552 556 561 565 568 572 578 580 583 586 587 589 591 594 597 601 603 601 596 594 592 588 582 577 571 565 560 554 548 542 537 533 529 526 522 518 511 507 504 504 504 502 500 499 497 493 490 486 482 479 476 476 474 470 467 464 462 458 455 453 450 447 443 441 438 437 434 432 430 430 429 427 424 425 425 426 427 428 432 435 437 439 439 442 444 445 445 444 444 444 447 450 452 453 455 456 458 460 461 461 459 457 456 460 464 468 470 471 471 472 474 478 481 486 491 493 495 498 501 503 503 502 503 507 513 519 523 526 528 529 532 536 543 552 559 564 569 576 583 588 594 602 608 612 617 623 628 632 637 643 651 656 663 671 679 685 689 694 702 709 713 717 719 723 727 731 733 737 741 747 755 762 766 770 770 771 770 766 760 753 747 744 737 732 726 720 713 708 704 702 701 700 699 696 697 699 701 704 706 707 708 711 713 715 718 722 724 727 731 734 738 741 743 746 749 752 756 761 769 776 781 785 791 797 802 811 824 836 845 853 856 859 866 876 883 892 901 911 922 933 944 953 958 967 974 980 1000 1015 1032 1043 1057 1070 1093 1104 1110 1116 1124 1132 1134 1138 1141 1144 1147 1150 1154 1157 1158 1157 1156 1157 1158 1159 1159 1160 1159 1159 1158 1155 1152 1149 1146 1144 1142 1139 1136 1135 1133 1133 1131 1128 1124 1120 1114 1105 1091 1078 1066 1053 1039 1026 1015 1004 994 988 986 981 974 966 959 952 941 927 918 910 901 892 884 879 874 870 866 866 866 863 861 856 855 854 855 852 849 849 848 842 837 833 827 822 815 805 798 791 784 778 775 774 772 768 763 757 751 750 748 746 747 747 746 744 742 740 738 734 730 724 718 715 712 705
702 702 703 708 714 719 725 730 734 738 742 746 749 750 748 745 741 738 734 730 725 717 710 705 697 688 677 666 659 654 651 647 642 635 628 622 616 611 607 603 598 594 591 588 585 582 578 574 570 567 562 558 555 553 551 546 541 537 534 533 533 534 532 528 522 518 521 525 528 528 528 529 529 529 528 528 530 531 531 530 529 530 531 534 534 536 537 537 536 536 537 540 542 543 546 552 556 559 562 565 567 570 576 581 586 589 592 593 592 595 601 605 607 610 610 606 601 600 595 589 583 578 574 570 564 558 552 548 543 538 533 528 523 519 514 511 511 509 508 505 504 502 499 497 494 490 485 482 481 479 475 472 470 465 462 458 455 452 448 446 444 442 439 436 435 434 434 431 429 426 425 425 425 425 426 428 430 433 435 437 439 442 444 445 446 445 445 447 449 451 452 451 450 451 453 455 457 456 455 456 458 461 465 469 470 470 471 474 477 480 484 489 492 494 497 501 503 503 502 504 510 518 525 528 530 530 529 529 533 539 548 556 562 567 574 582 587 593 601 606 610 617 622 628 633 637 643 649 654 662 671 680 687 690 696 705 714 721 721 722 726 729 729 728 731 736 741 748 753 757 760 759 759 757 753 747 742 735 729 722 717 711 705 701 697 693 690 689 690 691 691 690 690 692 693 696 698 701 704 706 708 710 714 717 721 726 729 733 736 737 738 740 744 750 755 761 767 771 775 778 783 792 801 812 821 832 837 847 851 855 863 872 878 888 898 912 922 927 936 945 957 965 971 987 1002 1018 1033 1042 1056 1078 1096 1108 1114 1121 1129 1133 1135 1138 1142 1144 1147 1149 1152 1153 1153 1154 1154 1155 1157 1158 1159 1159 1159 1159 1157 1154 1152 1150 1148 1146 1146 1145 1143 1141 1139 1137 1133 1129 1122 1115 1106 1093 1081 1069 1056 1043 1033 1025 1019 1008 1001 1000 996 988 981 974 966 953 941 934 926 917 908 902 896 890 886 881 880 878 876 873 870 868 867 865 862 859 861 861 858 852 847 842 834 827 819 811 803 796 790 788 786 783 782 776 768 762 762 760 758 756 755 753 750 747 745 741 737 733 726 721 717 712 707
715 715 714 716 722 727 733 737 741 744 749 750 751 750 747 745 741 735 730 724 717 710 704 696 687 678 668 659 653 648 644 641 636 631 626 620 614 608 604 600 596 592 589 587 582 578 574 570 568 564 561 557 554 552 549 544 540 538 535 535 535 534 531 527 522 521 524 530 533 533 533 532 532 532 533 534 535 534 533 533 535 536 538 538 538 539 540 540 540 541 542 545 547 549 554 557 561 564 567 568 570 574 578 584 589 595 599 599 600 603 607 610 612 613 613 613 610 606 603 597 592 587 582 579 574 567 563 558 553 547 542 536 530 526 522 520 518 515 512 510 508 506 505 503 501 498 494 489 487 484 480 477 473 470 466 462 458 454 451 448 447 444 441 439 437 437 438 438 436 433 431 429 426 426 425 426 427 429 431 434 437 440 442 444 445 445 445 446 448 450 450 450 449 448 448 449 450 452 453 454 456 460 464 467 468 469 471 474 477 481 485 489 493 496 498 502 505 505 505 508 514 521 526 529 529 528 528 527 529 535 544 554 560 565 571 579 585 590 598 603 608 615 621 627 633 638 642 647 653 660 669 678 687 693 700 708 716 721 721 722 724 726 725 724 724 728 733 738 743 748 751 752 750 748 742 737 730 725 718 711 705 698 694 690 686 685 683 681 682 682 681 682 684 685 687 690 693 696 698 699 702 704 710 714 718 722 727 731 733 736 737 741 746 749 753 755 761 764 768 770 776 783 795 804 811 816 828 840 845 848 853 862 871 878 888 900 910 917 924 934 946 956 964 980 994 1008 1025 1034 1043 1057 1081 1097 1109 1116 1124 1129 1132 1134 1137 1140 1141 1143 1145 1148 1149 1150 1152 1153 1154 1156 1157 1159 1159 1159 1158 1155 1154 1153 1153 1152 1152 1153 1153 1151 1148 1145 1140 1133 1125 1115 1105 1092 1081 1070 1060 1050 1044 1042 1036 1031 1027 1023 1015 1005 996 989 977 963 955 948 941 932 926 920 912 907 902 897 894 892 891 890 888 886 883 880 879 878 879 876 871 865 860 855 848 840 830 822 816 810 807 803 798 796 793 788 782 776 774 771 765 762 761 759 757 754 750 745 741 738 734 728 722 716 709
731 729 729 731 733 736 738 743 746 749 751 752 749 746 745 743 738 731 720 712 707 702 696 686 676 667 660 654 649 645 640 636 632 629 624 619 614 608 603 599 595 592 588 583 579 575 571 568 564 561 557 554 552 549 545 541 539 536 536 536 535 534 532 529 527 528 532 535 537 539 539 537 536 537 538 540 540 538 537 539 542 546 545 544 542 543 545 546 546 545 548 551 553 555 558 563 565 569 571 574 577 582 586 589 593 598 602 605 607 609 611 614 616 617 617 617 617 615 610 608 604 599 592 586 580 575 569 562 558 554 549 542 536 532 531 529 527 523 519 515 514 513 512 510 505 502 499 494 491 488 485 481 478 474 470 467 463 458 453 450 449 448 445 443 441 440 438 438 438 437 436 434 433 432 430 428 427 427 428 431 434 436 439 442 442 442 443 443 444 445 445 446 447 447 445 444 446 449 450 452 456 460 464 466 466 467 470 472 477 482 487 490 494 500 502 504 505 505 506 510 515 520 524 526 525 525 526 526 528 534 544 553 558 563 568 574 582 589 596 603 609 613 618 624 632 638 642 646 652 660 668 676 685 693 702 710 717 720 720 720 721 723 722 720 720 722 724 729 734 739 743 743 741 737 730 722 718 713 707 700 692 686 682 678 676 674 674 674 673 672 673 676 678 679 681 687 691 694 696 698 700 706 715 720 724 729 730 733 736 740 744 750 755 758 758 759 762 769 770 774 778 783 793 801 805 810 821 830 837 843 850 856 865 872 880 888 897 906 914 924 936 946 956 972 988 1002 1014 1026 1034 1045 1060 1082 1101 1109 1117 1121 1125 1128 1131 1133 1135 1137 1142 1145 1144 1145 1148 1151 1152 1153 1155 1156 1158 1159 1159 1157 1156 1156 1156 1156 1157 1157 1157 1156 1153 1147 1143 1139 1131 1121 1108 1094 1083 1073 1065 1057 1053 1052 1053 1051 1047 1043 1034 1023 1013 1008 998 982 969 963 955 948 940 934 927 920 917 914 910 909 907 908 909 907 905 900 901 897 892 889 884 876 871 867 861 851 842 834 827 823 821 816 811 807 804 801 793 787 782 778 774 770 768 767 764 759 753 749 747 743 738 733 727 721 713
742 739 739 742 744 745 746 746 748 750 751 749 746 745 742 739 734 724 713 705 699 694 685 675 667 661 655 650 646 642 637 632 628 625 620 615 610 605 600 596 592 587 583 580 578 575 572 568 564 560 556 554 551 548 543 540 539 538 537 536 534 533 532 533 535 536 538 540 542 543 543 544 543 544 544 544 544 544 544 545 548 548 548 546 545 546 549 551 552 553 555 557 559 561 564 569 571 574 578 582 585 590 592 594 596 600 606 609 610 612 614 617 620 623 625 625 624 621 618 614 612 608 602 595 588 581 574 568 563 559 555 549 544 541 539 536 533 529 525 523 520 520 518 513 510 508 505 501 496 492 489 486 481 478 475 471 466 461 457 454 453 451 447 446 444 442 440 439 438 437 436 436 436 436 434 433 432 429 428 428 430 432 435 438 440 441 441 441 440 440 440 442 444 444 444 444 444 446 449 452 454 458 463 466 467 468 471 473 476 481 486 489 492 498 502 504 503 504 506 509 513 517 520 522 523 524 526 527 529 535 544 553 560 565 569 572 577 587 596 602 608 612 616 623 630 637 640 646 652 659 666 673 682 692 702 711 716 717 718 718 718 719 717 716 717 718 721 724 729 732 734 733 731 725 718 712 707 702 696 688 681 676 673 672 668 666 666 665 666 665 666 669 674 676 680 687 694 698 700 704 709 715 722 728 733 737 739 740 744 746 751 757 765 770 773 773 777 781 784 788 790 794 800 805 806 808 814 821 831 837 846 853 860 865 873 879 886 895 905 915 925 937 947 962 975 991 1001 1016 1028 1039 1050 1066 1086 1098 1103 1111 1116 1118 1122 1126 1129 1132 1138 1139 1140 1141 1145 1148 1150 1152 1153 1155 1158 1160 1161 1161 1160 1160 1160 1162 1161 1160 1159 1157 1155 1152 1147 1143 1137 1127 1114 1102 1091 1087 1084 1076 1069 1066 1065 1068 1070 1064 1056 1044 1033 1026 1014 999 988 982 976 968 961 953 948 944 940 937 938 936 932 929 930 932 929 927 921 916 909 903 896 889 884 877 870 864 857 851 845 840 838 833 827 823 819 812 804 797 792 788 783 778 775 772 769 764 758 753 750 747 740 733 728 723 713
748 746 747 751 754 754 752 751 750 749 749 747 745 741 737 731 726 719 710 701 693 685 677 668 664 660 654 649 644 638 633 629 626 621 615 611 606 601 597 593 589 586 582 580 578 574 571 568 564 560 557 554 552 550 545 542 540 538 537 535 535 534 535 537 539 542 543 544 544 545 546 547 547 548 548 548 549 550 549 550 553 552 551 549 547 549 553 556 557 558 561 564 566 568 572 574 577 580 584 588 591 594 596 599 602 605 608 611 613 614 617 619 622 627 628 629 628 627 624 622 620 617 612 606 598 591 584 576 571 566 562 557 552 549 547 543 538 534 533 529 527 524 521 520 516 514 512 509 503 499 493 487 482 479 477 473 469 464 460 459 456 452 448 447 444 443 441 440 439 438 437 437 437 436 435 435 434 431 429 427 427 430 434 436 438 439 440 439 438 437 437 439 441 444 444 445 445 445 447 450 454 459 465 469 471 472 474 476 478 481 486 490 493 498 501 503 503 504 505 507 512 516 517 519 522 526 529 530 532 539 546 552 559 565 570 573 578 586 594 602 606 610 616 623 632 636 640 644 652 656 662 670 678 685 696 705 709 711 713 714 715 715 713 711 712 714 716 719 722 725 726 723 720 715 707 702 699 694 687 679 671 668 668 667 663 659 657 660 662 664 666 669 674 679 686 693 698 702 708 713 719 725 730 734 738 744 749 753 757 761 765 771 779 784 786 788 792 797 799 800 803 810 814 816 817 815 813 817 824 833 840 849 856 859 865 871 879 887 898 909 919 928 940 950 962 976 988 999 1017 1031 1039 1050 1064 1076 1090 1100 1108 1112 1115 1119 1122 1126 1129 1133 1135 1139 1145 1147 1149 1151 1154 1156 1159 1163 1164 1164 1163 1163 1163 1164 1165 1165 1163 1162 1161 1159 1155 1151 1146 1138 1131 1119 1113 1106 1099 1095 1091 1086 1084 1086 1086 1081 1071 1061 1052 1040 1031 1021 1013 1001 994 981 975 972 970 966 963 962 961 960 954 949 948 950 951 946 942 937 927 924 915 908 902 897 892 883 877 869 861 855 850 846 843 839 832 823 813 807 802 798 794 787 780 775 770 766 762 758 754 748 742 736 730 722 714
757 755 754 756 757 756 755 753 750 748 746 743 740 735 728 723 719 712 704 694 684 676 670 665 660 655 650 645 641 635 630 626 623 617 612 606 603 600 596 592 589 584 582 579 576 572 568 564 561 557 553 551 550 549 546 541 538 537 535 537 538 540 543 545 546 547 548 550 550 551 551 551 552 552 553 553 556 555 555 556 556 557 555 553 553 554 558 561 564 565 567 570 572 574 577 579 582 585 589 592 596 599 601 604 606 609 612 613 614 616 618 622 625 627 630 631 632 632 631 629 627 624 618 612 606 600 592 584 579 575 570 564 560 557 553 549 545 542 538 535 532 529 525 522 520 517 514 510 508 503 498 491 483 479 477 475 470 466 464 461 458 454 450 448 445 443 442 441 441 440 439 439 438 436 435 434 434 431 429 426 426 429 433 436 437 438 439 438 436 436 436 438 440 442 444 445 445 445 446 449 455 461 468 471 474 475 477 478 480 483 487 490 495 499 502 504 503 504 503 505 509 514 517 519 523 529 533 535 539 545 549 554 560 567 572 577 582 589 595 600 604 609 614 622 631 636 639 645 650 654 658 665 674 681 689 696 701 703 706 710 712 712 711 707 706 706 708 709 713 716 716 713 707 701 697 692 689 684 679 671 664 660 659 659 655 652 654 656 661 665 668 671 676 682 690 696 702 708 714 719 726 733 739 741 746 753 759 763 769 776 780 789 797 799 799 800 805 809 810 810 814 819 824 829 833 831 823 822 826 833 841 849 856 860 863 868 874 883 894 903 912 923 933 941 951 966 976 984 1000 1014 1027 1035 1044 1059 1073 1089 1098 1104 1109 1114 1118 1122 1125 1130 1135 1140 1143 1146 1148 1152 1155 1157 1160 1163 1165 1165 1165 1165 1166 1167 1168 1170 1170 1168 1167 1166 1162 1158 1154 1149 1143 1137 1130 1123 1116 1112 1112 1108 1105 1103 1097 1090 1084 1077 1068 1059 1048 1038 1034 1023 1011 1000 997 996 994 989 985 985 985 986 984 976 972 973 972 966 959 952 947 941 934 926 922 916 908 900 893 886 875 866 861 855 848 844 840 832 821 815 813 809 803 796 790 782 773 769 766 762 757 750 743 737 731 726 719
764 761 759 758 757 756 754 751 748 745 742 737 732 727 722 717 711 704 695 686 678 671 666 661 654 649 643 642 639 635 630 625 620 615 609 604 601 599 596 592 589 585 582 578 574 570 565 561 557 554 550 546 545 544 543 540 539 538 540 543 548 549 550 551 554 555 556 557 559 559 559 559 559 560 560 561 563 562 560 559 560 560 559 557 557 559 563 567 570 572 573 574 576 578 581 584 587 590 594 597 600 603 605 608 610 612 614 616 618 619 622 624 627 629 631 632 633 635 636 635 632 627 622 616 610 605 598 591 585 581 576 572 568 564 560 555 550 547 545 542 538 534 530 526 522 519 515 512 509 505 499 491 485 482 479 475 472 469 465 462 460 457 454 451 447 443 442 441 440 440 440 439 438 436 435 434 433 431 429 426 425 427 432 435 437 437 438 438 437 436 437 438 439 441 443 445 446 445 446 449 454 460 465 470 472 474 476 479 482 484 486 489 493 498 501 502 503 503 502 502 506 512 518 522 525 532 536 539 543 550 556 561 566 573 580 584 587 592 596 600 604 608 613 620 628 634 639 643 649 653 658 663 671 680 686 692 696 698 702 706 708 709 707 705 700 697 698 700 703 706 706 702 696 691 686 682 676 670 667 663 658 653 651 649 648 649 651 655 659 664 668 672 677 684 694 702 708 713 717 726 735 745 753 759 763 768 775 779 787 789 798 805 811 815 816 816 821 826 827 827 830 834 838 843 848 844 840 837 837 840 846 851 857 860 864 869 875 883 892 900 907 919 928 936 943 956 966 974 986 1002 1017 1026 1034 1048 1063 1076 1087 1097 1105 1113 1119 1124 1128 1133 1137 1140 1144 1146 1150 1154 1156 1157 1158 1161 1164 1165 1166 1167 1168 1170 1171 1171 1171 1170 1170 1168 1165 1162 1160 1155 1150 1149 1145 1143 1139 1136 1131 1126 1122 1120 1114 1104 1091 1086 1083 1075 1063 1054 1048 1040 1033 1024 1022 1026 1022 1014 1014 1016 1013 1007 1001 998 994 991 989 986 978 970 965 958 950 942 937 930 922 913 907 902 896 885 874 865 856 850 844 836 827 822 817 813 806 801 795 789 782 776 771 766 760 753 746 740 733 728 723
770 765 762 760 757 755 752 746 743 741 737 732 727 722 717 711 707 700 692 684 676 669 663 657 652 646 643 640 637 634 629 624 618 612 607 602 600 600 597 592 587 584 580 576 571 566 560 556 554 551 547 544 542 540 540 541 542 544 548 552 556 558 557 557 559 562 564 566 566 566 566 566 566 566 568 569 569 567 565 564 563 563 562 560 560 560 564 569 572 573 575 576 579 582 584 588 591 594 597 600 603 605 607 610 612 614 617 619 622 624 626 628 629 631 633 634 635 637 638 637 635 631 626 620 614 607 602 597 591 586 582 578 575 571 565 560 555 552 549 547 544 540 536 533 529 525 519 515 512 508 502 496 489 484 481 478 473 470 468 466 464 460 456 452 446 443 440 440 439 438 439 439 438 437 436 435 432 430 427 425 424 426 431 435 437 438 439 440 439 440 440 440 440 440 441 441 442 443 445 450 455 460 463 466 468 471 474 478 481 484 486 488 491 495 498 500 501 502 502 503 507 515 521 526 528 534 540 544 548 555 561 565 572 579 586 591 594 596 599 601 603 607 612 620 626 632 637 640 645 652 657 665 671 678 685 689 694 697 699 703 704 703 702 696 691 687 687 689 690 693 693 691 686 682 675 669 664 660 656 653 650 646 644 644 644 645 650 655 661 667 672 677 682 689 697 707 715 720 728 737 750 760 769 777 781 787 790 798 806 811 817 821 826 833 834 835 840 846 849 851 851 853 854 857 858 858 855 851 850 851 854 857 860 864 866 873 881 889 895 901 906 911 922 931 941 948 961 969 978 994 1010 1020 1030 1040 1053 1072 1089 1098 1107 1114 1121 1126 1131 1135 1138 1141 1146 1150 1153 1155 1157 1158 1159 1162 1164 1164 1165 1166 1168 1170 1171 1171 1170 1170 1171 1170 1169 1167 1166 1162 1159 1157 1159 1156 1156 1153 1150 1145 1142 1141 1136 1123 1108 1099 1096 1092 1084 1073 1063 1054 1049 1049 1049 1046 1042 1038 1035 1034 1032 1025 1020 1017 1014 1009 1005 1000 995 989 980 973 963 956 948 941 930 925 919 915 910 900 888 876 866 857 850 842 832 827 822 815 809 803 800 796 789 783 777 771 763 756 750 744 738 731 723
772 768 764 761 759 754 749 743 737 735 732 727 721 717 712 707 701 695 686 678 671 665 661 656 651 646 641 636 635 632 629 624 617 611 606 603 601 598 595 590 585 580 577 574 568 561 557 555 553 552 550 548 545 542 542 548 551 553 554 558 561 562 564 564 565 568 570 571 571 571 572 572 572 573 573 574 575 573 570 569 569 568 567 565 563 562 566 570 572 573 575 578 581 584 587 589 592 595 598 600 603 605 608 611 613 615 618 622 623 625 627 630 632 634 635 636 638 639 640 640 638 635 632 628 621 614 606 601 597 592 588 584 580 576 572 567 563 558 555 551 548 545 542 538 533 528 523 519 516 512 505 497 490 485 481 477 474 472 472 471 469 462 457 451 446 442 442 440 440 439 439 440 439 438 437 434 431 429 426 424 424 427 432 435 439 439 438 438 440 442 443 443 442 440 439 440 440 440 443 448 456 460 463 464 465 467 470 473 478 481 485 488 491 494 496 497 499 501 503 504 511 517 524 526 529 535 542 548 552 557 562 569 576 583 589 594 598 601 603 604 607 610 616 621 626 630 635 638 645 651 660 667 672 676 681 685 690 693 695 696 697 697 694 688 682 678 676 676 677 679 679 677 674 670 665 662 656 650 646 644 642 640 639 639 640 643 649 657 664 670 676 679 685 692 700 710 721 730 737 750 762 776 784 789 798 804 809 816 823 833 836 839 845 848 850 856 861 865 869 871 873 872 874 875 874 870 868 863 862 864 869 873 875 877 878 883 889 893 899 903 907 913 922 934 943 955 963 971 977 990 1008 1021 1030 1040 1054 1074 1090 1100 1108 1116 1123 1128 1133 1137 1139 1143 1148 1151 1155 1156 1158 1159 1160 1162 1163 1164 1163 1164 1166 1167 1168 1168 1169 1170 1171 1172 1171 1170 1169 1168 1165 1163 1162 1163 1161 1159 1158 1156 1155 1152 1147 1138 1126 1116 1109 1104 1098 1093 1084 1075 1074 1072 1072 1070 1064 1063 1056 1055 1049 1042 1038 1036 1035 1031 1024 1018 1012 1004 994 984 973 964 955 946 936 929 925 921 912 904 894 885 875 866 858 849 841 834 829 822 815 809 804 798 791 785 779 773 766 759 753 747 740 734 727
775 769 765 762 757 752 746 741 738 734 728 722 717 713 707 701 696 689 680 674 668 663 660 655 650 645 640 635 631 630 626 621 617 611 606 603 599 595 590 587 583 577 571 565 561 559 557 557 557 556 555 554 552 550 552 556 560 561 563 565 568 569 569 571 573 575 576 577 577 577 577 577 577 576 576 577 578 577 576 575 575 574 573 572 570 568 569 571 572 573 575 578 583 585 587 589 591 594 596 599 602 605 609 613 615 619 622 624 626 628 630 632 634 635 635 637 639 641 642 643 641 640 639 633 626 620 614 607 603 600 595 590 585 581 577 572 568 564 559 555 551 548 544 539 534 529 524 521 520 515 508 500 493 488 484 479 476 476 476 475 473 466 460 455 449 445 445 444 442 441 441 440 439 438 436 433 430 427 424 423 424 428 431 435 438 437 437 438 440 442 443 443 443 440 439 438 438 438 440 446 452 457 460 462 462 463 466 469 475 480 484 488 490 491 492 493 496 500 503 507 510 518 524 526 528 535 543 550 554 560 567 574 582 589 593 599 603 605 607 609 612 618 622 626 628 633 637 642 649 657 661 665 670 674 678 681 686 689 690 691 692 691 688 684 677 672 670 669 668 669 668 665 661 657 654 651 647 642 638 635 635 635 634 636 639 642 649 657 664 670 674 680 686 694 702 716 728 738 750 762 774 785 795 805 814 825 831 838 845 849 852 853 857 861 869 874 879 884 886 891 894 896 897 893 890 886 882 879 878 881 886 889 892 894 892 893 897 900 905 908 913 920 930 939 949 957 969 975 980 992 1008 1023 1035 1046 1059 1076 1088 1099 1109 1118 1126 1131 1136 1140 1142 1145 1150 1153 1154 1156 1157 1158 1159 1160 1160 1160 1161 1162 1162 1164 1165 1166 1166 1167 1169 1171 1171 1172 1171 1171 1169 1166 1167 1168 1166 1164 1162 1160 1157 1155 1150 1144 1138 1131 1123 1116 1112 1108 1104 1097 1093 1090 1086 1084 1082 1079 1075 1073 1068 1060 1052 1049 1047 1042 1036 1029 1021 1010 999 986 976 965 958 948 939 932 927 922 915 906 896 888 880 873 864 852 845 838 832 828 823 815 808 800 792 785 779 773 766 760 755 747 741 736 730
778 773 768 763 757 750 744 740 736 733 728 723 716 710 704 698 694 688 681 674 668 663 658 654 649 644 639 633 630 626 622 619 614 610 605 601 596 592 589 586 581 573 565 559 558 558 559 560 560 560 560 559 560 561 563 563 564 566 567 572 575 578 580 581 583 585 585 585 584 584 583 583 584 584 582 583 583 583 582 581 581 580 580 579 578 576 574 574 574 574 575 579 581 583 584 585 588 591 595 599 602 606 610 615 620 624 626 627 629 632 634 636 637 638 638 640 642 643 644 646 646 645 643 639 635 629 623 617 611 606 602 596 590 585 581 577 573 569 563 559 554 551 546 540 536 530 526 523 520 515 508 501 496 491 488 485 481 478 479 478 475 470 465 458 451 447 446 445 444 443 442 441 440 438 436 432 428 424 421 421 423 428 431 434 435 435 434 437 439 440 442 443 442 440 438 436 435 436 439 443 448 453 458 460 461 463 465 469 474 479 484 487 488 487 486 489 493 499 505 506 508 515 522 525 528 534 542 549 555 561 570 579 587 593 599 605 608 611 614 618 622 627 632 633 635 639 644 649 656 660 662 665 668 672 675 680 683 684 685 686 687 686 682 678 673 667 664 662 659 658 655 653 649 645 642 640 637 633 630 628 628 628 631 635 640 645 651 657 665 669 674 684 694 701 711 724 734 744 757 770 782 794 806 822 833 844 853 858 865 868 869 872 876 883 887 892 898 906 908 912 916 917 916 912 907 903 899 898 896 900 902 904 906 906 907 906 906 911 915 918 921 927 935 946 951 958 969 978 985 997 1013 1027 1039 1050 1062 1080 1092 1101 1112 1123 1131 1136 1139 1143 1145 1147 1151 1153 1154 1155 1156 1157 1157 1157 1157 1156 1157 1158 1159 1160 1161 1162 1163 1164 1165 1167 1168 1169 1170 1170 1170 1169 1169 1169 1168 1166 1164 1161 1158 1154 1150 1146 1142 1136 1130 1123 1117 1111 1107 1102 1098 1094 1090 1086 1085 1081 1079 1076 1074 1069 1063 1058 1053 1046 1039 1031 1021 1011 1001 990 976 966 961 953 943 936 930 926 920 911 901 890 879 872 864 856 848 840 834 829 823 817 810 802 794 788 782 777 772 766 759 751 743 736 732
781 775 770 763 757 751 744 738 734 730 727 722 715 707 700 696 692 687 681 676 669 662 657 652 648 644 639 634 630 625 621 616 612 607 604 600 596 591 587 583 577 570 563 560 559 561 561 561 562 563 563 564 566 568 568 568 569 571 575 580 584 586 590 592 593 593 592 590 591 592 593 593 592 592 591 591 592 591 591 589 588 588 588 588 587 585 582 580 578 577 577 579 581 582 584 585 588 591 596 600 603 607 612 618 623 626 628 630 632 635 638 641 642 642 642 644 645 646 648 649 649 648 645 643 640 636 630 623 615 609 605 599 593 589 586 582 578 574 569 562 557 553 547 543 538 533 529 525 520 515 509 503 496 491 488 484 481 478 477 477 476 472 467 460 453 447 444 444 443 444 444 443 441 439 436 432 427 422 420 421 425 429 432 434 433 432 433 434 437 438 439 441 441 439 437 435 434 436 439 442 445 450 455 457 459 461 466 471 474 478 481 483 484 484 486 489 493 498 502 505 508 513 518 522 526 533 540 547 553 561 572 580 589 596 603 609 614 618 623 627 630 635 638 640 642 647 652 654 660 664 667 668 671 673 676 677 679 680 680 682 682 679 677 674 668 663 657 651 647 643 642 639 637 636 632 629 628 626 624 623 622 624 628 634 640 646 654 663 669 673 680 690 702 710 719 730 739 748 760 775 791 805 820 832 846 856 864 874 881 884 887 892 895 899 904 911 919 925 928 932 934 936 934 930 927 923 922 917 916 917 918 919 920 921 921 923 925 926 930 931 932 934 943 951 959 968 975 984 992 1005 1020 1033 1046 1057 1069 1085 1097 1107 1118 1127 1136 1140 1143 1145 1147 1148 1150 1152 1153 1154 1155 1154 1155 1155 1154 1153 1153 1153 1154 1155 1156 1157 1159 1160 1162 1164 1165 1165 1166 1167 1167 1167 1167 1165 1163 1163 1162 1158 1155 1152 1148 1143 1137 1130 1125 1120 1110 1104 1100 1096 1091 1087 1083 1080 1078 1074 1071 1069 1067 1064 1059 1056 1051 1044 1036 1028 1018 1008 999 987 972 964 959 951 942 936 931 926 920 912 902 891 880 870 864 857 850 842 835 829 823 817 810 802 794 788 785 780 774 769 761 752 746 743 739
783 776 767 761 757 752 746 739 733 729 724 720 713 706 700 694 690 685 680 675 669 663 657 653 651 647 642 636 630 625 621 617 613 607 603 600 594 589 585 580 575 570 565 562 562 562 562 563 565 566 567 568 569 572 574 575 577 579 583 588 590 593 597 600 600 600 599 598 600 604 604 604 603 602 600 599 599 600 599 597 595 594 592 592 593 592 589 586 583 581 581 582 584 585 587 589 591 594 599 603 607 610 615 620 625 628 629 631 634 637 639 642 644 644 645 647 648 650 651 652 652 651 648 644 642 638 633 627 621 614 608 603 597 592 589 585 581 576 572 567 558 552 549 544 540 534 529 525 521 517 512 504 496 491 486 483 481 477 475 473 472 471 468 462 455 448 446 443 443 443 443 443 442 439 436 432 427 422 421 423 427 430 432 433 432 432 432 433 434 435 435 436 437 436 435 434 434 436 437 439 441 445 449 453 456 460 465 472 476 477 478 480 481 483 489 493 495 498 501 504 507 511 515 519 524 530 537 545 553 561 571 580 588 597 606 615 622 627 632 635 639 641 647 651 653 657 660 660 662 666 670 670 671 672 674 674 674 675 676 676 675 674 672 668 662 656 649 644 639 636 633 630 626 625 625 623 622 621 620 620 621 624 629 635 640 646 654 664 671 679 686 697 706 715 725 736 746 756 766 782 798 813 823 836 849 863 876 885 894 900 905 912 915 919 927 933 941 942 947 947 948 948 946 944 942 940 939 938 936 935 935 936 938 939 939 941 943 947 949 949 951 954 958 965 972 978 985 998 1005 1019 1029 1042 1056 1069 1080 1093 1106 1115 1124 1133 1139 1144 1147 1148 1149 1150 1150 1151 1152 1154 1153 1153 1152 1151 1150 1148 1147 1147 1148 1150 1150 1150 1151 1154 1158 1160 1160 1160 1161 1161 1163 1163 1162 1160 1159 1157 1155 1151 1148 1145 1141 1135 1129 1122 1118 1110 1100 1092 1088 1083 1079 1075 1072 1071 1068 1064 1060 1058 1055 1052 1050 1047 1043 1037 1031 1021 1011 1002 991 977 966 959 954 947 939 933 928 923 917 909 898 888 879 872 863 855 850 843 836 831 824 817 812 804 796 789 784 781 776 767 758 754 750 746 741
786 778 769 761 756 753 745 737 731 726 721 716 712 706 700 693 688 683 678 673 669 663 657 654 650 645 640 634 629 625 622 618 612 607 602 597 593 588 584 580 575 571 569 566 565 565 565 567 569 571 572 574 576 578 580 583 585 588 591 595 597 599 603 606 607 607 608 610 613 615 615 613 613 611 609 607 607 608 607 605 602 597 596 595 596 596 595 593 589 587 586 587 588 589 591 593 594 596 601 605 608 612 616 622 627 629 630 632 634 637 639 641 643 645 647 649 651 652 653 653 654 654 652 649 646 641 635 631 625 619 613 608 602 597 592 587 582 578 575 569 561 555 551 546 541 536 530 527 525 521 515 506 497 491 489 485 482 478 474 472 469 467 467 463 458 454 449 445 443 442 442 442 442 441 438 434 429 424 423 424 427 429 430 431 431 431 432 432 432 433 432 432 432 433 434 434 434 435 435 436 438 441 445 449 454 458 465 471 474 475 476 477 479 484 490 494 495 496 498 502 505 508 512 517 521 529 537 545 553 563 571 580 588 598 609 620 631 640 644 647 651 654 659 661 662 667 668 668 666 669 670 671 671 671 671 670 669 669 669 669 667 666 664 661 655 649 644 639 635 630 626 621 619 617 617 618 616 614 614 616 620 626 633 640 645 650 656 664 675 685 693 702 709 721 734 745 757 764 772 786 801 811 822 834 853 872 886 897 905 914 923 932 938 946 952 956 959 962 963 965 962 960 962 961 958 958 960 959 958 957 956 958 958 958 958 960 961 965 970 972 971 974 980 983 988 991 997 1008 1021 1030 1040 1054 1067 1077 1085 1099 1112 1124 1132 1141 1146 1148 1150 1152 1151 1151 1151 1151 1151 1151 1151 1150 1150 1148 1145 1143 1142 1142 1143 1145 1146 1146 1147 1148 1152 1154 1154 1155 1156 1157 1157 1157 1156 1155 1153 1150 1147 1144 1142 1139 1133 1126 1118 1112 1107 1100 1090 1083 1078 1074 1068 1062 1060 1057 1053 1049 1047 1046 1045 1039 1038 1033 1031 1027 1019 1010 1001 991 981 971 960 952 948 941 933 928 923 918 913 905 895 886 878 870 862 854 848 842 838 832 826 819 813 806 797 789 784 780 774 767 760 754 749 746 742
785 777 769 761 755 749 742 735 730 724 719 714 710 705 698 690 685 683 679 673 667 663 659 653 648 642 635 631 627 624 622 619 612 604 599 595 591 587 583 578 572 569 569 571 572 572 572 573 573 576 579 582 585 586 587 590 593 594 598 601 604 607 611 615 616 617 619 621 622 623 622 622 621 620 617 614 614 613 614 614 611 607 604 603 600 600 600 598 595 592 590 591 591 593 595 597 599 600 603 606 610 613 616 620 626 628 630 630 633 637 640 644 645 647 649 651 653 653 654 656 658 659 657 653 650 648 644 637 631 625 619 613 606 599 593 588 584 581 577 571 564 559 554 550 544 538 533 528 525 522 515 507 500 494 489 485 480 477 474 470 467 466 465 465 464 458 451 446 444 443 442 441 441 441 441 437 431 426 422 423 425 427 428 428 430 431 431 431 432 432 431 430 430 431 432 434 434 435 435 436 436 438 442 447 453 460 465 469 472 474 475 477 480 484 488 491 492 494 496 500 503 506 510 515 519 527 537 548 556 564 572 579 587 598 611 624 637 646 656 660 663 666 667 669 673 675 676 675 672 672 672 672 672 670 668 667 666 664 664 663 660 657 654 652 647 640 634 630 624 620 616 611 609 610 610 608 608 609 611 615 621 628 634 642 649 655 661 669 679 689 699 708 716 727 741 754 763 771 784 794 804 814 826 843 861 879 893 903 913 924 935 946 957 965 972 974 977 981 980 979 978 977 976 976 975 976 974 976 977 978 976 978 978 978 976 976 978 984 989 994 996 995 996 1001 1004 1006 1008 1018 1028 1038 1051 1066 1078 1088 1098 1109 1123 1133 1142 1148 1151 1153 1154 1153 1153 1153 1153 1152 1151 1149 1147 1146 1145 1143 1139 1137 1136 1136 1137 1138 1140 1140 1140 1142 1145 1147 1148 1149 1151 1151 1150 1150 1150 1149 1146 1143 1140 1138 1137 1130 1123 1116 1110 1104 1097 1089 1081 1075 1070 1063 1057 1050 1044 1040 1036 1033 1033 1034 1028 1026 1024 1023 1020 1015 1008 999 990 981 973 964 956 948 940 934 928 923 919 914 907 899 890 881 874 866 858 851 844 840 836 832 827 822 816 810 802 794 787 781 776 769 760 753 748 747 744
785 778 770 762 754 747 740 733 727 722 717 711 705 701 695 688 684 682 679 674 669 664 658 653 647 640 635 630 627 623 620 616 610 602 596 593 590 585 579 573 569 568 569 572 576 577 578 579 582 586 588 591 592 592 593 595 596 599 602 607 610 614 620 624 626 627 628 630 631 632 631 630 629 628 628 625 622 622 620 620 619 617 615 613 609 607 604 601 599 598 598 598 599 600 603 603 604 604 605 609 612 615 618 622 626 628 629 629 631 636 644 648 650 651 652 654 655 655 656 658 661 662 660 657 655 653 648 642 636 630 624 618 612 603 596 592 587 582 578 572 566 561 556 550 544 540 533 528 524 520 514 507 501 495 489 483 479 476 474 470 466 464 462 462 461 458 454 448 445 443 442 440 440 441 441 439 434 426 420 419 422 424 425 426 427 429 430 431 431 431 431 430 430 431 432 434 435 436 436 436 435 436 438 443 450 459 465 467 470 471 474 475 478 481 486 488 490 492 493 495 499 504 509 514 519 527 537 548 557 563 569 580 589 597 612 627 639 650 660 668 672 675 678 679 682 684 684 682 679 677 676 673 670 666 664 660 657 656 654 653 650 646 643 638 634 631 626 621 616 610 604 601 600 601 602 602 602 607 612 617 622 630 638 645 652 659 666 673 683 692 704 715 723 734 749 761 770 779 790 801 809 820 837 854 872 886 899 910 921 932 945 960 970 979 987 989 993 996 996 994 994 993 990 989 988 989 988 989 990 990 993 995 996 995 995 995 999 1004 1010 1013 1012 1013 1016 1022 1025 1026 1026 1031 1041 1048 1062 1074 1090 1100 1112 1124 1135 1146 1152 1157 1159 1160 1158 1156 1154 1153 1154 1153 1150 1146 1143 1141 1139 1136 1133 1131 1131 1131 1131 1132 1132 1133 1132 1134 1136 1138 1141 1143 1143 1144 1145 1145 1144 1142 1140 1137 1134 1132 1127 1123 1117 1108 1101 1095 1089 1083 1076 1066 1058 1051 1045 1038 1031 1025 1021 1018 1017 1016 1012 1010 1010 1007 1004 1000 993 987 979 971 964 959 950 942 934 927 922 919 914 909 900 891 884 877 870 863 854 847 842 838 833 828 824 819 814 809 804 798 791 784 776 769 761 753 749 747 743
783 777 769 762 754 746 738 730 724 717 710 704 700 697 692 688 684 681 679 675 670 665 659 652 645 641 638 633 628 624 619 612 606 600 595 592 588 584 578 574 571 570 572 577 581 582 582 585 589 591 594 596 598 598 598 598 601 604 609 613 617 621 626 630 635 638 639 640 640 640 639 638 637 636 635 636 634 632 629 626 624 624 623 621 617 612 607 603 604 605 607 608 608 608 608 608 607 606 608 612 616 618 621 625 628 629 630 632 634 639 645 650 653 654 656 658 659 659 659 661 662 662 662 660 659 657 652 645 638 632 628 623 615 607 601 595 591 586 581 575 569 564 558 551 545 541 538 532 526 522 517 509 502 497 491 485 480 477 474 472 467 463 461 460 459 459 458 454 449 443 439 437 437 438 441 440 436 429 422 417 418 419 421 423 425 427 430 431 432 432 431 431 430 430 431 434 435 436 436 435 434 433 435 439 445 455 461 464 465 469 471 474 474 479 485 488 489 490 490 492 495 500 507 513 517 527 537 546 555 562 568 579 588 596 608 625 637 646 657 668 674 679 683 687 688 688 688 686 682 680 675 672 666 662 659 655 650 646 645 641 636 633 630 625 620 616 614 610 607 600 596 595 594 595 596 599 604 608 614 621 629 636 644 650 656 663 669 677 686 697 710 719 725 738 753 767 776 783 794 807 819 828 845 863 881 895 907 917 929 943 957 973 982 989 995 999 1003 1006 1008 1009 1010 1007 1007 1004 1004 1002 1001 1002 1003 1006 1008 1009 1010 1008 1011 1015 1020 1023 1026 1028 1028 1028 1035 1041 1046 1044 1047 1052 1058 1067 1075 1088 1103 1113 1124 1135 1143 1153 1158 1161 1161 1161 1160 1159 1156 1154 1153 1152 1149 1143 1139 1137 1134 1131 1129 1127 1126 1125 1125 1126 1126 1125 1125 1127 1129 1133 1136 1138 1138 1138 1139 1139 1137 1136 1133 1131 1129 1126 1122 1117 1110 1102 1095 1088 1081 1073 1065 1056 1045 1035 1030 1024 1017 1011 1006 1001 998 995 992 992 990 988 984 981 976 971 965 958 952 946 939 931 923 918 913 909 906 899 891 885 877 870 864 858 851 845 840 836 832 826 821 816 810 806 801 795 789 782 775 767 760 756 752 747 742
781 775 768 760 752 743 735 727 719 712 707 701 696 692 690 687 682 680 676 673 669 664 657 652 648 644 639 632 628 623 617 611 604 599 594 590 585 580 576 574 574 575 580 586 588 589 589 589 591 593 595 599 602 604 603 603 606 610 614 618 623 627 632 636 643 648 650 650 650 650 649 647 645 644 644 645 644 643 640 637 632 629 628 627 624 619 613 611 611 612 613 613 612 611 610 610 610 609 612 616 621 623 625 627 629 630 632 635 639 642 645 649 654 656 658 661 662 661 661 662 663 663 664 665 662 658 653 647 641 635 629 623 616 609 602 597 593 589 583 578 573 567 560 552 548 545 541 536 532 527 518 511 505 498 493 488 482 477 474 471 468 465 461 461 461 461 462 460 455 448 442 438 436 437 439 439 438 432 425 420 417 417 417 419 421 423 427 430 432 432 432 431 431 430 431 432 433 434 435 435 434 432 432 435 441 450 456 460 464 467 471 472 474 478 482 485 487 488 490 491 494 500 506 512 518 525 537 547 555 562 569 579 587 595 606 619 632 643 653 665 671 676 683 687 688 687 686 683 680 675 669 663 658 656 655 652 645 639 634 629 625 623 620 615 608 603 598 595 594 591 591 591 592 592 595 602 608 614 622 631 639 646 651 657 663 668 674 682 694 704 716 724 732 744 760 773 782 789 801 814 830 845 861 878 894 906 916 926 938 955 971 985 992 999 1004 1008 1013 1017 1018 1019 1019 1019 1017 1017 1017 1015 1016 1016 1018 1021 1022 1025 1026 1027 1030 1034 1039 1041 1045 1048 1051 1052 1059 1065 1068 1067 1071 1071 1078 1086 1093 1103 1118 1125 1133 1140 1147 1153 1156 1158 1158 1158 1157 1155 1153 1151 1151 1149 1144 1139 1135 1132 1129 1127 1124 1123 1121 1120 1119 1119 1119 1119 1119 1120 1122 1125 1128 1131 1131 1131 1133 1134 1132 1129 1127 1126 1126 1125 1120 1114 1108 1101 1091 1080 1071 1062 1053 1043 1031 1023 1017 1010 1002 996 991 984 978 977 974 972 970 967 965 961 959 955 950 945 941 934 925 918 912 905 898 894 893 889 885 880 873 864 857 852 848 842 837 833 828 823 818 813 808 802 798 793 787 782 773 765 760 756 753 749 743
780 774 766 758 750 742 732 723 716 711 708 702 696 691 688 686 681 677 674 670 665 660 655 651 648 644 638 632 625 620 615 609 605 599 593 589 583 577 575 576 579 586 590 593 595 596 596 596 597 598 601 606 609 611 611 612 613 616 620 624 628 631 635 640 647 653 657 658 659 658 657 655 653 652 652 652 653 651 649 645 641 637 635 632 629 625 621 618 618 620 621 620 618 615 614 613 613 612 614 617 622 626 629 630 631 633 636 639 642 644 648 652 655 657 660 662 663 663 663 663 664 665 667 667 665 662 656 651 645 639 631 625 619 611 604 597 591 587 582 578 574 569 562 555 551 547 543 538 533 526 521 515 508 502 497 492 485 479 474 471 468 465 462 461 462 462 464 463 461 458 452 444 438 437 438 438 437 434 430 426 422 419 417 416 417 420 424 427 429 430 431 432 431 430 430 430 430 431 433 433 432 431 432 433 437 443 450 457 461 465 470 473 473 476 478 481 483 486 490 493 496 500 506 513 519 526 535 544 553 561 569 577 586 599 607 615 623 635 649 659 665 671 676 681 685 684 681 677 673 669 662 655 651 648 644 641 637 630 625 622 619 615 610 605 599 592 588 585 584 584 584 586 588 590 596 605 614 621 628 637 643 648 654 662 670 677 684 693 704 716 724 732 741 752 766 780 790 797 806 819 836 853 869 888 906 919 931 941 952 966 982 990 997 1004 1010 1015 1021 1025 1026 1025 1024 1024 1024 1024 1026 1026 1025 1027 1029 1032 1034 1036 1039 1043 1045 1047 1050 1055 1061 1065 1068 1071 1077 1083 1083 1085 1085 1089 1094 1100 1108 1120 1132 1139 1144 1148 1152 1155 1156 1155 1154 1153 1152 1150 1147 1147 1146 1143 1139 1135 1131 1129 1127 1123 1119 1116 1115 1114 1114 1113 1113 1112 1113 1115 1117 1119 1122 1124 1126 1127 1128 1129 1128 1127 1126 1124 1123 1123 1118 1112 1105 1096 1086 1076 1067 1057 1046 1036 1026 1017 1009 1000 991 984 976 967 961 957 955 954 949 948 947 946 943 939 933 930 927 920 913 906 898 891 885 881 880 878 876 873 868 861 854 848 844 839 832 827 823 819 815 811 806 801 797 793 787 781 774 766 760 755 752 748 743
776 770 764 756 749 741 731 723 716 712 708 702 696 692 688 684 679 674 671 667 663 657 654 651 647 642 638 632 625 618 613 608 602 597 593 588 580 574 575 580 587 592 596 598 601 602 602 602 604 607 611 614 615 616 618 619 621 622 625 629 633 637 642 647 653 661 664 666 665 664 663 662 661 660 660 660 659 658 656 653 648 644 641 637 633 628 625 624 624 624 624 624 623 621 619 617 616 616 618 620 623 627 631 633 634 637 640 642 643 646 649 653 657 660 662 663 663 664 664 665 665 666 666 666 665 661 656 651 645 641 635 629 622 615 607 601 594 588 585 581 576 569 563 557 552 548 544 539 533 527 520 516 511 504 498 495 489 481 476 473 470 467 464 461 461 462 462 462 463 463 459 453 446 441 439 437 436 435 434 432 430 427 422 418 417 419 422 424 426 428 430 431 431 430 429 428 428 430 431 432 432 432 432 432 434 438 445 451 457 463 468 470 472 473 476 479 482 486 490 494 496 500 505 512 519 525 533 540 547 556 564 573 584 597 606 612 619 631 644 654 660 665 670 674 677 675 672 667 663 659 654 648 643 638 633 627 624 622 619 616 611 605 600 594 590 586 581 578 577 577 578 582 587 591 597 609 618 625 631 638 644 650 657 667 678 688 696 704 714 723 729 740 750 759 773 785 794 802 812 824 838 856 871 895 920 934 944 956 966 978 989 997 1003 1010 1015 1020 1023 1029 1030 1030 1029 1027 1027 1028 1030 1030 1030 1032 1035 1038 1040 1044 1048 1052 1054 1056 1059 1066 1070 1075 1080 1085 1091 1095 1095 1097 1102 1107 1112 1119 1130 1140 1147 1152 1155 1157 1156 1155 1154 1154 1152 1149 1148 1146 1144 1142 1139 1137 1135 1131 1127 1125 1123 1120 1117 1114 1111 1111 1110 1109 1108 1107 1108 1110 1113 1116 1116 1119 1122 1122 1122 1122 1122 1122 1122 1121 1121 1119 1115 1110 1104 1094 1083 1072 1061 1053 1044 1034 1023 1012 1003 992 983 974 964 950 943 938 936 935 930 931 932 932 929 923 917 914 910 905 899 894 887 882 879 875 872 871 869 867 861 856 849 843 836 830 826 821 818 814 812 808 804 800 795 789 783 778 772 766 759 754 749 742 738
776 769 762 755 748 740 730 721 716 710 705 699 695 692 689 683 676 672 667 663 659 655 652 647 643 639 634 627 621 617 611 605 599 595 590 585 580 578 581 586 590 596 599 604 608 610 611 611 613 616 619 620 621 622 623 626 628 630 632 634 638 645 651 657 664 669 672 670 669 671 673 672 671 669 668 669 668 665 662 658 654 651 648 645 639 633 630 629 630 630 629 628 627 626 625 623 622 621 622 624 627 630 634 636 638 639 641 643 645 647 649 652 657 662 664 665 667 667 667 667 667 667 667 666 663 659 655 650 646 641 636 630 624 617 611 604 599 593 588 583 578 572 565 559 554 550 546 540 534 528 522 517 512 505 498 493 489 485 480 476 473 468 465 463 462 462 460 460 461 462 460 456 452 446 441 438 436 435 434 434 433 431 428 422 419 419 419 421 424 426 428 430 430 430 428 427 428 429 431 432 432 432 431 430 432 436 444 450 454 459 464 467 468 471 473 477 482 486 490 492 496 500 505 512 518 522 529 537 546 552 560 570 583 593 604 610 619 629 639 648 655 662 665 666 668 667 663 658 654 649 644 639 633 628 623 620 616 612 609 604 599 593 588 584 581 579 576 574 573 574 577 583 589 596 603 615 622 630 637 643 650 657 664 673 684 695 703 714 724 731 740 750 759 769 781 790 798 807 816 829 845 861 875 889 911 937 956 971 982 993 1000 1006 1012 1017 1021 1025 1029 1031 1033 1033 1032 1032 1031 1031 1031 1032 1034 1036 1038 1040 1043 1047 1051 1055 1059 1062 1067 1073 1077 1080 1086 1092 1097 1102 1107 1111 1117 1124 1132 1138 1145 1154 1157 1158 1159 1159 1156 1154 1152 1151 1148 1145 1142 1140 1137 1134 1132 1129 1126 1124 1122 1120 1117 1115 1112 1110 1107 1105 1106 1104 1101 1102 1104 1107 1109 1109 1109 1112 1116 1117 1117 1117 1116 1117 1117 1117 1116 1114 1112 1109 1103 1094 1083 1071 1060 1050 1044 1035 1024 1011 998 987 976 967 958 943 930 925 922 914 911 910 910 913 909 903 902 898 895 890 884 880 875 872 870 867 865 863 861 856 852 849 845 836 829 825 822 817 812 807 803 801 799 795 789 784 779 774 769 762 755 750 745 740 736
773 765 758 751 745 738 730 721 715 710 704 699 697 694 689 683 677 671 666 663 657 653 649 645 640 636 629 623 618 615 610 604 598 594 590 587 584 585 589 592 595 600 605 611 616 620 621 622 622 623 624 625 627 628 629 632 637 640 640 643 647 653 659 665 671 676 677 677 677 679 681 681 679 678 678 678 676 673 669 664 660 656 655 651 646 640 637 636 638 637 636 635 633 631 630 628 627 626 625 626 628 631 633 636 638 640 642 645 647 649 649 652 657 662 665 667 668 670 670 668 667 667 667 667 664 661 657 652 647 641 635 629 623 616 610 604 599 595 589 582 576 572 567 561 557 554 549 543 537 532 524 518 512 506 500 495 491 487 483 477 472 468 465 463 462 460 459 457 457 457 458 456 454 450 444 439 437 435 434 434 433 432 430 426 422 419 419 420 421 423 425 427 429 429 427 426 427 429 430 431 432 432 430 430 432 436 443 450 455 458 461 463 466 470 473 475 479 483 486 490 494 499 506 513 518 522 528 538 548 555 561 571 584 595 602 609 616 625 635 643 651 658 659 659 660 657 651 646 643 639 631 626 624 619 617 613 609 604 598 593 587 581 577 574 572 571 571 571 571 574 581 588 595 602 613 623 630 637 644 652 659 666 672 680 690 701 711 722 731 740 751 762 772 782 790 799 806 813 822 836 856 871 882 894 906 926 958 980 991 999 1007 1015 1021 1021 1025 1028 1032 1033 1033 1034 1034 1035 1035 1035 1035 1035 1037 1039 1041 1043 1046 1050 1053 1059 1065 1068 1072 1077 1080 1085 1090 1095 1101 1109 1117 1124 1129 1134 1141 1147 1152 1156 1158 1160 1159 1159 1156 1152 1148 1147 1144 1141 1137 1133 1130 1127 1124 1121 1117 1113 1111 1110 1108 1106 1105 1102 1099 1096 1098 1098 1097 1096 1098 1102 1102 1102 1102 1104 1109 1111 1111 1112 1112 1112 1111 1111 1111 1110 1108 1105 1101 1094 1083 1071 1060 1050 1042 1034 1023 1010 998 985 974 963 953 936 923 915 907 900 897 894 891 890 891 889 888 886 883 879 875 871 868 864 861 858 856 854 851 847 843 841 837 831 823 819 816 810 805 800 796 793 790 789 785 782 778 773 766 759 754 749 743 738 735
769 761 754 748 742 736 730 722 715 708 704 701 698 694 688 683 677 670 666 662 656 650 647 643 638 634 628 622 618 614 610 605 599 593 589 588 588 591 595 598 601 604 610 617 622 624 627 628 629 629 629 631 633 634 636 639 643 646 649 652 658 663 666 671 676 682 685 687 690 692 691 690 688 688 687 686 683 680 676 671 666 662 658 655 651 647 643 643 644 644 643 641 639 637 635 634 633 631 631 630 630 632 634 635 637 640 642 646 649 650 652 654 658 663 666 668 670 670 670 668 666 665 666 666 665 662 658 652 647 641 635 628 621 616 611 605 600 595 589 584 578 573 568 563 558 554 549 544 538 531 525 519 513 508 502 496 492 488 484 478 474 471 467 463 460 459 457 455 453 452 453 453 452 449 444 438 435 435 434 433 432 432 431 428 424 422 420 419 419 420 421 423 426 428 427 425 426 427 429 430 432 432 431 431 432 434 440 449 454 457 460 461 465 469 471 473 476 479 484 488 494 500 507 512 516 521 526 535 548 556 566 573 584 593 600 606 613 622 632 643 649 653 654 652 648 644 638 633 628 623 618 614 611 608 606 603 598 591 585 580 575 568 564 562 562 567 569 569 572 578 585 594 601 607 618 629 636 642 649 658 667 675 681 688 695 706 717 729 737 749 763 774 781 790 797 803 811 821 831 847 864 881 892 902 917 935 956 980 1001 1009 1018 1024 1026 1027 1027 1030 1030 1032 1032 1032 1034 1035 1035 1035 1036 1038 1039 1041 1044 1046 1049 1052 1055 1061 1068 1071 1074 1078 1083 1089 1094 1099 1105 1112 1119 1126 1132 1137 1143 1148 1151 1154 1156 1157 1157 1155 1153 1149 1145 1142 1139 1136 1133 1128 1123 1117 1113 1106 1101 1099 1096 1094 1095 1096 1096 1094 1089 1088 1088 1093 1093 1092 1092 1093 1097 1098 1099 1102 1104 1105 1105 1105 1105 1105 1104 1106 1106 1104 1102 1100 1097 1091 1083 1071 1059 1049 1041 1034 1024 1011 997 984 971 959 948 933 920 910 903 895 888 882 876 875 872 872 872 873 871 868 866 862 858 854 850 847 845 843 841 838 835 833 829 823 816 811 807 802 797 793 790 787 785 783 781 779 774 769 762 758 752 746 740 735 729
763 756 748 743 738 733 726 719 713 709 705 703 699 690 684 678 674 671 666 662 656 650 645 640 635 631 626 621 615 611 607 602 598 592 588 587 591 596 601 605 609 613 618 623 626 629 633 636 637 636 637 640 642 644 644 646 649 652 656 661 667 671 673 678 683 689 693 697 701 701 701 699 698 697 695 694 690 687 682 676 671 666 661 657 655 653 651 649 650 651 650 649 647 644 642 642 640 638 636 634 634 635 636 636 637 639 643 646 650 654 655 656 659 662 667 669 670 671 670 667 665 665 665 666 666 663 658 652 647 643 637 630 623 618 613 607 602 596 590 585 580 575 570 565 561 554 547 542 538 532 527 521 515 509 503 498 493 489 485 481 478 473 469 465 462 460 457 455 452 451 450 450 449 445 441 437 435 434 434 433 432 433 432 430 426 422 420 418 418 417 417 418 422 426 428 427 426 427 428 430 431 431 431 431 431 433 438 445 452 456 459 462 464 467 470 472 474 479 484 489 495 501 506 510 515 519 524 531 541 552 560 571 581 589 597 603 612 621 631 641 648 648 646 642 637 632 628 621 614 609 604 602 599 595 593 589 584 579 571 568 565 562 557 556 557 562 567 569 573 581 588 595 603 610 619 630 639 645 653 662 671 678 684 691 701 710 721 734 743 754 768 778 786 793 798 806 815 826 839 852 867 883 899 914 927 941 959 985 1003 1013 1022 1028 1031 1032 1035 1034 1033 1031 1030 1031 1033 1035 1034 1034 1035 1037 1039 1042 1045 1048 1051 1054 1058 1063 1068 1072 1075 1080 1085 1092 1096 1101 1105 1110 1117 1124 1130 1135 1141 1146 1148 1150 1152 1152 1151 1150 1148 1145 1141 1137 1135 1130 1125 1120 1114 1106 1097 1092 1088 1083 1077 1076 1076 1080 1084 1082 1079 1079 1082 1081 1085 1086 1088 1089 1091 1094 1095 1097 1098 1097 1097 1098 1098 1099 1100 1101 1100 1097 1095 1094 1093 1088 1080 1071 1062 1051 1041 1031 1022 1011 997 982 967 955 944 932 920 910 899 891 881 872 865 861 858 859 859 859 858 858 854 850 846 842 838 835 834 833 831 828 826 823 819 814 809 805 801 796 792 788 783 780 779 777 775 774 771 765 760 754 750 745 738 732 726
756 748 742 738 733 727 722 716 710 707 706 702 694 687 681 676 672 668 665 661 654 646 640 637 632 628 623 615 610 606 603 600 596 592 590 593 600 606 608 612 616 619 623 628 630 633 637 640 643 644 646 649 651 654 656 658 659 661 666 671 678 681 684 689 695 699 703 708 710 710 710 710 709 706 704 700 697 693 689 684 679 673 667 662 659 658 658 657 658 660 659 656 653 651 647 645 645 643 641 638 636 636 637 638 639 640 644 648 652 655 657 658 660 665 669 671 672 672 671 668 666 666 666 666 664 662 657 652 649 645 639 633 626 621 615 609 602 596 590 585 580 576 572 567 561 555 548 544 539 534 529 524 519 514 508 502 497 492 489 485 481 478 474 469 466 462 458 455 453 452 452 451 448 443 439 436 435 434 433 432 431 432 432 431 427 422 419 418 419 418 416 416 418 421 427 427 427 427 427 428 429 430 430 431 431 432 436 442 449 454 458 461 463 466 469 471 475 480 485 491 496 499 502 505 510 516 523 529 538 546 556 565 575 585 593 600 610 619 629 637 641 642 638 632 627 622 615 604 597 595 593 591 588 584 581 575 570 564 560 558 557 554 552 552 554 559 563 568 575 582 589 596 604 612 619 629 637 646 654 665 671 677 683 695 706 714 723 734 745 757 766 776 787 794 801 809 818 829 841 855 868 885 905 917 928 942 961 978 994 1009 1019 1025 1029 1035 1035 1036 1033 1030 1029 1030 1033 1035 1035 1034 1033 1036 1038 1042 1045 1048 1051 1054 1059 1062 1066 1070 1074 1079 1085 1090 1096 1100 1104 1109 1115 1121 1126 1132 1137 1142 1144 1146 1148 1148 1146 1144 1144 1143 1139 1135 1127 1120 1112 1106 1098 1089 1083 1076 1069 1064 1061 1058 1060 1061 1061 1062 1064 1067 1066 1066 1070 1079 1087 1086 1088 1089 1090 1090 1090 1091 1091 1092 1093 1094 1094 1093 1092 1090 1089 1088 1087 1084 1078 1070 1061 1051 1037 1027 1019 1009 995 979 966 954 941 930 921 909 898 886 877 866 857 850 846 843 844 842 842 842 842 838 833 829 826 824 822 822 821 819 817 812 811 808 803 799 795 791 787 782 777 774 773 771 770 769 766 762 757 752 747 741 735 729 724
750 744 738 734 729 724 718 712 708 705 703 700 693 685 680 675 671 667 663 659 651 644 638 634 630 625 619 612 606 603 600 597 594 593 592 598 606 612 616 618 621 624 628 631 634 638 643 647 651 653 655 657 660 664 668 671 672 673 677 682 685 689 694 700 706 710 714 718 720 720 721 721 718 716 712 707 703 700 697 692 688 681 675 669 664 665 666 667 668 667 666 664 662 660 656 653 651 649 646 643 640 639 640 642 643 645 647 650 653 655 658 660 663 667 671 672 673 673 672 670 667 666 666 666 664 661 656 653 650 647 641 634 629 624 617 610 604 597 592 586 582 578 574 570 564 557 550 545 540 535 529 524 520 515 510 505 500 495 492 488 485 481 477 473 468 464 461 457 455 453 453 452 448 443 440 437 435 434 433 431 430 430 431 431 429 425 420 418 418 419 418 416 415 417 420 424 425 426 427 427 427 429 430 430 429 430 433 438 444 450 455 459 463 466 469 472 475 479 483 488 492 496 498 502 506 514 523 530 538 545 553 562 571 581 590 598 605 615 624 631 632 632 628 624 616 609 600 590 588 585 583 581 576 570 565 561 559 556 552 551 551 549 548 548 553 558 563 567 575 582 590 597 606 613 621 630 638 647 660 668 675 680 687 698 707 713 720 733 746 755 765 772 782 792 800 809 818 829 843 856 869 886 903 915 928 942 961 977 991 1003 1013 1019 1023 1026 1028 1028 1028 1026 1025 1027 1030 1032 1033 1031 1031 1034 1038 1042 1045 1048 1050 1053 1058 1061 1065 1068 1072 1077 1082 1088 1094 1097 1100 1105 1111 1116 1122 1127 1132 1137 1141 1143 1145 1145 1144 1143 1141 1139 1133 1125 1116 1105 1095 1086 1078 1073 1065 1058 1050 1043 1042 1042 1040 1039 1041 1040 1041 1048 1044 1045 1053 1071 1082 1082 1084 1086 1087 1086 1085 1085 1085 1086 1088 1088 1087 1086 1085 1084 1083 1083 1081 1077 1074 1069 1061 1049 1039 1028 1018 1008 996 979 964 953 941 929 918 906 894 884 873 863 853 847 841 837 835 831 827 827 827 825 822 819 816 812 809 809 810 808 805 803 803 800 795 791 788 785 781 777 772 771 770 768 765 764 763 760 756 750 744 739 732 726 722
743 739 735 730 726 721 716 711 707 703 699 694 688 680 675 671 669 665 662 658 651 645 638 631 623 618 613 607 604 601 599 597 598 598 599 602 609 617 622 624 626 629 632 636 641 646 651 655 657 661 664 667 670 673 675 676 677 680 684 687 692 697 702 708 713 717 721 725 727 728 728 727 726 724 721 716 712 709 707 702 696 688 681 677 674 673 673 674 675 675 673 671 670 668 665 662 659 655 651 649 645 643 643 646 647 648 649 651 654 657 661 664 665 668 670 671 673 673 672 670 669 668 667 666 664 661 658 655 652 648 642 635 630 625 619 613 608 602 596 590 585 580 575 571 564 557 551 547 542 536 530 526 521 516 510 504 500 495 492 490 486 482 478 474 470 467 463 460 456 454 453 453 450 446 443 439 436 434 432 431 430 430 430 431 430 427 422 418 417 418 418 417 416 415 416 418 422 424 424 425 426 428 430 430 429 429 430 433 440 446 451 456 462 466 470 472 474 477 480 483 489 492 497 500 506 513 519 526 535 542 550 560 569 580 588 594 600 608 617 620 622 619 615 610 605 598 590 584 579 577 573 569 564 560 556 553 551 549 547 546 545 546 545 549 554 560 566 573 580 587 594 600 606 613 622 632 641 654 662 671 678 685 691 699 705 710 720 731 743 755 764 771 779 785 795 806 816 827 840 853 869 886 902 916 927 940 955 968 980 990 998 1005 1010 1012 1011 1014 1015 1016 1019 1021 1025 1027 1027 1029 1030 1033 1036 1041 1043 1045 1046 1050 1056 1060 1063 1065 1069 1074 1080 1084 1089 1092 1096 1100 1106 1110 1115 1121 1127 1132 1136 1138 1140 1141 1141 1139 1138 1135 1129 1117 1103 1091 1084 1074 1063 1056 1049 1037 1026 1020 1016 1015 1016 1016 1017 1016 1014 1016 1016 1021 1035 1058 1074 1076 1079 1082 1084 1082 1078 1077 1079 1079 1078 1078 1078 1078 1078 1078 1078 1077 1075 1073 1071 1068 1062 1053 1040 1029 1019 1007 994 979 967 956 944 932 919 906 896 888 879 866 855 848 841 836 828 821 815 813 813 813 812 811 806 801 798 797 797 796 794 794 793 791 787 784 782 779 775 772 769 767 765 762 761 760 759 757 753 747 741 735 730 725 719
743 737 732 728 723 717 713 710 706 701 696 690 683 677 673 670 667 664 659 654 650 643 634 624 616 611 608 606 605 606 606 607 609 610 609 611 616 622 626 629 631 634 638 643 647 652 656 659 662 665 669 674 676 679 678 680 681 685 689 695 701 707 712 717 722 726 730 735 738 738 737 734 734 733 731 727 723 720 716 713 704 695 689 684 682 682 682 683 683 682 680 678 677 676 672 669 665 662 659 654 650 647 647 648 649 650 651 654 658 662 664 666 667 668 671 672 672 672 671 670 670 669 668 665 663 661 658 655 653 649 642 637 631 625 620 616 612 607 601 594 588 583 578 572 568 561 554 550 543 536 530 527 523 517 512 506 501 496 493 490 487 483 479 475 471 466 464 461 457 454 452 451 448 445 443 440 436 434 433 432 431 430 430 430 430 428 423 418 416 417 419 419 417 415 414 414 417 420 422 422 423 425 427 429 429 428 428 431 438 445 450 455 459 464 469 470 472 475 478 484 489 493 496 499 504 510 516 522 530 537 546 557 568 578 584 588 594 599 604 609 609 607 603 600 596 588 581 576 572 567 562 558 554 552 549 546 545 544 542 540 542 543 548 552 555 563 573 580 585 591 597 604 610 617 626 637 647 655 662 669 680 687 693 699 706 713 719 729 740 752 763 771 776 783 791 804 815 826 836 852 863 881 899 912 922 934 944 949 954 959 967 981 992 994 994 997 1002 1002 1005 1010 1016 1022 1024 1026 1030 1031 1034 1037 1039 1041 1044 1048 1053 1057 1060 1064 1067 1074 1078 1082 1086 1090 1091 1094 1099 1105 1110 1115 1120 1124 1127 1129 1133 1136 1136 1135 1132 1127 1120 1109 1095 1083 1073 1062 1049 1038 1027 1017 1008 995 986 992 995 995 996 994 991 989 991 1000 1013 1039 1061 1071 1076 1078 1079 1077 1073 1071 1071 1070 1068 1067 1069 1071 1071 1069 1071 1070 1070 1070 1071 1067 1062 1056 1046 1031 1017 1006 993 981 967 957 947 935 923 911 900 895 885 873 860 847 839 831 821 810 805 804 804 802 799 798 795 791 788 787 786 785 783 784 783 779 776 775 774 770 768 766 764 764 762 759 757 756 753 751 748 743 737 732 726 719 713
747 740 734 728 721 715 710 707 703 698 693 686 680 675 671 668 664 659 653 649 645 638 629 619 612 609 608 609 610 610 611 613 615 617 618 620 625 628 631 633 636 639 644 648 653 657 662 666 669 673 679 683 687 688 689 690 693 696 700 705 711 716 721 726 731 736 741 746 749 749 748 746 746 745 742 738 733 728 723 716 712 707 701 697 694 693 693 692 691 690 687 685 683 682 680 675 671 668 663 658 653 650 649 650 652 653 654 656 660 664 667 668 670 671 672 673 674 673 672 670 670 669 668 665 662 660 658 655 652 648 643 638 634 628 621 617 613 608 602 596 589 583 578 575 569 562 556 551 545 537 532 527 523 520 514 508 504 499 495 492 489 484 480 476 471 466 462 459 456 453 451 448 446 444 443 441 438 436 435 434 432 431 430 430 429 428 425 421 418 419 418 418 418 417 416 414 414 417 421 420 420 423 425 426 427 427 428 431 438 446 452 455 458 461 465 468 470 474 479 483 489 493 495 498 502 507 513 521 527 532 539 551 563 576 582 585 589 594 597 598 598 597 595 592 585 578 570 565 563 558 550 545 542 541 541 540 538 537 536 538 540 544 550 556 560 568 576 584 591 597 605 614 624 631 636 643 651 658 662 671 681 691 696 701 709 718 725 733 741 751 762 770 778 785 794 803 813 828 843 855 863 875 893 905 914 924 930 929 930 934 942 957 970 977 977 977 981 986 987 993 1005 1014 1017 1021 1026 1029 1031 1034 1035 1038 1042 1045 1048 1051 1055 1060 1065 1069 1073 1076 1081 1085 1086 1089 1094 1100 1104 1108 1113 1118 1120 1122 1124 1127 1128 1128 1124 1120 1111 1097 1084 1074 1065 1053 1037 1023 1013 1002 986 972 969 970 973 975 973 973 974 972 975 984 994 1016 1025 1059 1072 1074 1075 1073 1068 1067 1066 1064 1063 1062 1063 1065 1065 1065 1065 1065 1065 1070 1075 1072 1065 1058 1050 1038 1025 1013 998 985 971 957 948 939 927 915 907 898 890 880 867 857 844 833 823 812 802 799 798 794 790 786 783 780 778 777 776 774 773 771 770 767 765 766 766 765 762 760 758 758 757 756 753 750 747 745 741 737 733 728 723 718 714
746 742 736 729 722 717 712 706 701 697 692 685 679 676 671 666 659 652 647 643 637 629 620 613 609 608 609 612 614 613 613 614 617 621 624 626 630 634 636 639 642 646 650 655 659 663 667 669 672 677 683 689 693 696 699 702 704 709 711 716 720 726 730 737 742 747 752 755 757 760 761 761 760 757 753 748 743 738 732 726 721 717 713 709 706 705 704 702 700 699 695 690 687 686 683 681 678 675 670 663 657 655 654 653 654 655 656 658 661 666 669 670 671 673 675 676 676 676 674 673 671 669 668 666 663 661 658 656 653 648 643 639 635 628 623 616 611 606 602 597 591 585 579 573 567 561 556 551 546 539 533 528 523 519 515 510 505 501 496 493 490 486 482 477 471 466 463 461 458 454 450 447 444 442 442 441 439 438 437 436 434 432 431 430 430 429 430 428 425 423 419 418 417 417 416 414 412 413 417 419 420 422 424 425 427 426 427 431 438 447 453 456 458 461 464 465 469 473 476 481 485 488 491 494 499 504 511 519 523 528 534 543 555 568 577 583 586 588 590 592 589 587 585 582 577 571 566 561 556 551 545 538 534 534 533 533 532 532 534 537 540 546 553 559 566 574 581 589 596 604 614 627 635 641 647 652 657 661 669 678 692 698 704 711 721 730 735 740 748 756 767 777 783 791 797 806 816 831 845 856 858 868 883 896 903 909 911 910 912 918 924 930 940 949 956 958 959 967 969 979 993 1001 1007 1014 1021 1025 1029 1030 1033 1036 1040 1042 1045 1048 1051 1055 1060 1064 1068 1071 1076 1079 1082 1086 1090 1095 1099 1102 1105 1109 1114 1117 1120 1120 1119 1116 1110 1102 1094 1085 1075 1065 1052 1037 1024 1012 1001 988 975 965 955 950 950 953 954 954 955 959 961 968 978 987 1001 1030 1046 1069 1065 1064 1063 1064 1063 1060 1058 1056 1056 1057 1057 1057 1059 1061 1063 1071 1076 1077 1072 1064 1051 1043 1031 1018 1005 991 977 963 953 944 933 923 914 906 895 885 874 863 852 840 830 818 808 799 793 790 785 779 774 771 768 767 765 764 761 760 757 756 755 756 757 758 757 754 752 751 752 750 747 745 742 738 736 733 728 724 719 715 712
745 740 735 731 725 719 715 709 703 699 692 686 682 679 674 668 660 652 646 639 630 623 618 612 609 607 611 616 617 617 616 618 621 624 628 631 634 637 641 644 647 651 657 661 665 668 671 675 678 684 688 692 697 701 705 710 712 714 719 723 729 735 741 748 756 761 765 767 769 772 773 773 770 767 761 756 752 748 744 738 732 727 722 719 716 715 714 711 708 707 705 700 695 691 687 684 682 678 673 666 660 660 659 658 657 659 660 661 663 667 669 670 672 675 677 678 679 679 677 675 673 671 668 666 662 659 657 656 653 650 646 641 635 629 622 615 610 606 601 596 593 589 582 574 566 560 556 550 544 538 534 529 523 518 514 510 507 504 498 492 490 486 482 477 472 467 464 462 461 458 453 447 444 441 440 440 439 438 437 436 435 433 431 430 431 432 432 432 431 429 425 421 418 416 415 412 410 410 412 416 420 424 424 425 425 425 425 427 434 444 450 453 456 460 463 465 468 471 475 479 483 485 488 492 496 501 508 515 519 524 531 540 551 561 571 578 581 583 582 583 581 578 576 572 568 565 562 557 552 547 541 534 532 530 530 530 530 531 533 538 544 549 556 565 573 583 590 596 604 613 623 632 642 650 656 659 665 672 680 693 703 711 717 726 734 745 750 753 757 765 774 780 785 793 801 809 818 828 838 850 854 858 870 882 887 889 891 892 896 902 907 910 909 917 924 931 942 950 961 969 977 988 994 1008 1015 1021 1025 1028 1031 1035 1038 1040 1044 1049 1051 1053 1056 1060 1063 1066 1070 1075 1079 1082 1085 1089 1093 1097 1100 1105 1109 1112 1114 1113 1111 1106 1098 1086 1076 1067 1060 1050 1036 1021 1009 1001 990 980 969 956 944 936 931 935 936 936 936 941 948 954 963 976 988 1004 1010 1033 1052 1054 1056 1057 1057 1053 1051 1048 1047 1047 1047 1048 1051 1054 1060 1067 1073 1075 1076 1067 1057 1043 1030 1018 1007 997 983 970 960 950 940 931 920 910 900 889 879 869 856 845 836 825 815 806 798 790 783 775 769 763 760 758 757 754 751 748 745 743 744 745 746 747 747 746 744 744 744 744 742 740 738 736 733 730 725 721 717 713 707
744 740 737 733 726 719 713 707 703 697 691 687 682 679 675 668 660 656 651 642 632 623 617 615 614 613 616 618 620 619 619 621 626 631 633 637 639 641 644 647 651 655 660 666 670 672 674 678 684 689 693 697 701 704 711 716 719 723 728 733 739 745 752 759 766 772 777 780 782 783 784 783 780 777 772 765 762 760 756 751 744 738 732 727 725 725 725 723 719 716 713 710 704 698 695 690 685 680 676 672 668 666 664 662 660 661 662 664 665 667 669 672 675 677 679 680 681 681 679 676 675 673 669 665 661 658 656 655 654 651 646 642 636 630 624 618 611 605 601 597 593 590 585 575 567 561 555 549 543 539 534 529 523 518 514 511 508 504 499 494 491 488 483 478 473 469 466 463 460 457 454 450 446 442 441 441 440 439 437 436 435 433 432 432 432 433 432 431 431 430 427 423 420 417 414 411 409 408 409 414 420 423 424 424 423 423 424 426 431 440 446 450 453 456 461 463 466 468 473 479 484 486 488 490 495 500 506 511 515 522 531 539 548 555 564 572 578 579 579 577 574 570 568 564 560 558 556 551 546 541 536 532 530 528 527 527 528 530 535 543 549 555 562 571 580 589 597 604 613 620 628 639 650 659 665 673 680 687 695 705 715 724 730 737 745 757 765 765 769 774 777 781 786 793 798 807 815 823 833 841 848 849 853 860 866 869 873 875 878 884 891 893 893 889 892 905 917 930 945 956 967 979 995 1005 1012 1017 1022 1026 1029 1032 1035 1039 1043 1046 1048 1049 1051 1055 1059 1062 1066 1069 1074 1077 1080 1083 1089 1093 1096 1099 1104 1107 1108 1106 1101 1095 1086 1074 1061 1053 1044 1033 1019 1007 998 988 977 966 953 942 931 921 918 917 918 917 917 922 930 937 952 964 976 983 991 1005 1036 1046 1046 1046 1045 1045 1044 1042 1041 1039 1039 1042 1045 1049 1051 1058 1065 1067 1069 1065 1054 1043 1029 1019 1012 1002 988 973 963 956 947 938 926 914 902 894 884 873 860 848 841 832 821 811 805 799 791 783 772 764 758 755 751 747 742 737 735 735 736 736 736 736 736 735 735 735 736 735 737 737 737 734 730 726 723 718 715 710 706
744 738 735 731 726 718 711 707 703 698 693 687 682 676 670 663 657 653 649 643 633 623 617 616 617 620 624 626 625 623 622 624 629 635 639 641 643 645 648 651 654 657 662 667 672 676 679 684 688 693 697 701 705 710 717 723 727 731 737 744 750 757 764 769 775 780 785 791 794 797 797 796 794 788 783 777 772 769 764 760 756 751 745 740 737 736 735 733 729 725 722 717 712 708 703 698 691 685 680 677 673 670 668 665 663 663 665 666 668 669 670 673 677 680 682 683 684 683 680 678 676 674 671 668 664 660 657 655 653 650 646 640 635 631 626 621 615 608 603 599 595 589 582 576 568 560 554 547 541 538 534 531 527 523 518 513 508 504 500 496 492 488 485 481 476 473 469 464 460 457 454 451 448 444 442 441 440 438 437 435 435 434 433 432 432 433 432 431 430 429 426 424 421 418 415 413 409 407 407 411 417 420 422 422 422 422 424 426 431 439 445 448 450 453 457 461 464 467 471 477 482 485 486 488 492 497 502 506 512 520 529 536 544 551 558 567 573 577 576 573 568 564 560 556 553 552 550 547 541 536 531 527 525 524 523 523 525 530 538 547 555 560 567 576 586 596 604 612 620 626 633 646 659 669 677 687 698 704 712 723 730 741 748 754 759 772 779 782 786 790 792 794 797 798 801 805 811 820 826 832 835 836 837 837 840 847 853 856 859 858 863 871 872 873 873 878 894 900 924 936 952 981 996 1006 1010 1015 1019 1021 1025 1028 1033 1038 1041 1044 1046 1047 1048 1053 1058 1061 1064 1067 1070 1073 1076 1081 1086 1090 1093 1095 1096 1099 1099 1097 1093 1085 1073 1060 1051 1044 1036 1026 1010 995 984 973 964 953 941 930 921 912 905 900 898 900 901 901 907 918 933 947 956 965 974 982 1009 1034 1037 1036 1037 1036 1035 1036 1034 1033 1032 1034 1037 1039 1042 1048 1055 1058 1061 1062 1054 1044 1031 1022 1014 1003 990 979 967 957 950 941 931 919 906 899 889 880 868 859 850 839 827 819 812 806 799 789 779 770 760 754 748 743 737 732 728 727 728 728 728 728 727 727 726 726 726 725 727 729 728 727 725 721 717 714 710 706 702
741 736 732 728 721 715 710 706 702 697 691 685 679 671 665 659 653 649 643 636 628 621 618 618 623 627 630 632 629 627 627 629 634 638 640 644 648 650 651 653 655 658 663 669 674 679 683 687 692 697 701 706 711 716 723 730 735 741 748 755 761 767 774 781 787 793 798 804 808 810 811 809 804 799 794 790 784 778 772 768 765 761 756 752 749 745 743 740 737 734 729 724 720 715 710 703 697 691 685 679 675 673 670 668 668 668 668 669 670 671 673 675 678 681 683 685 687 686 683 680 679 676 674 670 666 663 660 655 652 648 644 639 635 631 628 623 618 613 607 601 595 589 581 574 568 561 555 549 543 540 537 534 530 527 522 516 511 506 501 498 495 490 486 483 478 475 471 466 462 459 456 452 447 444 443 441 440 438 436 436 435 433 432 431 431 432 432 432 431 429 428 427 424 420 418 415 412 408 407 409 414 417 418 418 419 421 424 425 428 433 441 447 450 453 457 461 464 465 469 474 478 481 483 485 489 495 499 504 511 518 526 533 539 543 551 559 567 573 574 570 564 557 553 549 547 545 544 542 539 534 529 523 521 521 522 522 525 531 540 548 557 565 570 581 592 599 607 616 625 632 641 655 668 677 685 697 709 722 731 740 747 758 763 770 776 785 791 795 797 800 802 804 805 805 804 803 806 811 816 817 820 822 824 822 824 827 830 832 834 837 839 843 853 857 862 869 883 905 919 928 939 962 994 1006 1010 1016 1018 1021 1025 1030 1033 1039 1042 1044 1047 1049 1050 1054 1059 1061 1063 1065 1067 1070 1075 1079 1083 1085 1088 1090 1090 1091 1090 1086 1081 1072 1058 1046 1038 1031 1022 1010 996 984 973 964 956 946 934 923 912 897 887 884 883 883 884 887 888 900 917 933 940 947 957 965 979 989 1009 1025 1024 1026 1026 1025 1025 1025 1025 1025 1022 1025 1031 1037 1043 1049 1055 1056 1053 1043 1035 1023 1014 1002 991 982 973 962 952 943 934 923 914 906 898 889 882 870 861 849 837 829 822 813 802 793 784 774 764 755 749 742 736 730 725 722 721 719 719 718 720 720 718 718 717 717 718 719 718 717 717 714 710 707 705 702 698
736 733 729 724 719 714 709 705 700 694 689 683 676 669 663 657 652 646 640 631 624 620 620 624 628 632 634 634 633 633 635 638 639 641 644 648 653 655 655 655 656 660 665 670 675 679 685 689 694 699 705 712 717 722 728 734 741 749 758 765 770 777 784 791 797 804 813 818 821 823 822 820 815 810 806 799 795 790 782 777 774 771 768 764 758 755 753 749 745 740 735 729 723 719 714 708 703 698 690 683 680 678 676 674 672 672 671 670 670 673 675 678 680 682 684 687 689 688 686 684 681 678 675 672 668 664 660 656 652 648 644 642 638 633 629 624 619 613 608 602 596 587 578 574 569 561 556 553 550 546 542 538 534 530 523 518 512 507 503 499 496 493 489 484 481 476 471 467 464 461 457 451 448 445 443 442 439 437 436 436 434 433 432 432 432 432 433 433 433 433 433 431 428 425 421 418 413 409 407 407 411 415 416 416 417 419 423 424 425 429 438 446 451 455 458 460 463 466 468 472 475 477 479 482 487 494 499 506 512 518 523 529 533 536 542 550 559 567 569 565 559 552 547 544 542 541 540 540 537 533 529 524 521 520 522 523 527 534 542 550 561 570 577 585 594 604 610 618 632 641 651 662 675 684 693 705 718 730 743 752 761 770 777 785 790 797 801 803 805 806 806 807 806 806 804 801 800 801 804 803 802 805 808 808 811 808 808 810 811 817 826 831 838 847 849 858 882 908 924 925 937 957 982 1002 1015 1021 1023 1026 1030 1033 1036 1040 1042 1045 1047 1049 1051 1055 1058 1060 1061 1065 1068 1070 1072 1076 1079 1079 1080 1083 1085 1085 1082 1078 1073 1062 1045 1031 1023 1012 998 987 979 973 966 958 950 939 927 913 899 886 876 872 868 865 867 871 877 886 904 917 927 933 941 947 954 964 965 989 1006 1013 1016 1014 1012 1012 1012 1011 1013 1015 1017 1025 1031 1037 1041 1045 1046 1041 1032 1026 1017 1008 998 988 976 967 959 950 939 931 922 914 905 895 888 879 867 858 849 840 831 822 811 800 791 782 772 762 754 747 739 733 727 722 718 715 713 711 712 713 713 712 711 711 712 711 711 710 709 705 702 700 698 693 688
735 732 728 723 717 712 707 701 695 691 688 682 675 668 661 656 649 642 634 629 625 624 626 628 632 636 638 638 638 638 639 640 643 645 648 653 657 660 660 659 660 662 666 670 676 681 685 689 694 699 707 715 722 728 732 737 742 753 763 772 780 789 796 801 806 817 825 831 834 834 833 831 827 823 816 809 804 799 794 789 785 781 777 772 768 764 761 758 753 747 742 736 730 724 719 714 707 700 693 688 684 683 683 680 679 676 674 673 673 676 679 682 684 686 688 690 691 690 688 685 681 680 677 675 670 665 661 657 652 648 646 644 639 635 630 625 618 613 608 603 596 587 578 572 567 563 560 558 557 553 548 543 538 532 526 519 513 507 504 501 499 495 491 485 481 478 474 470 466 462 458 454 451 448 446 443 440 438 437 436 435 434 434 435 435 435 434 434 434 434 434 433 431 427 424 419 413 409 406 406 408 412 414 415 415 417 419 422 425 431 438 446 451 454 456 457 460 464 469 472 474 475 478 482 487 493 501 507 511 515 519 523 527 530 537 546 553 558 558 556 550 546 542 539 538 539 539 535 532 528 525 521 517 518 520 524 528 536 543 552 563 572 579 588 599 608 616 626 636 646 653 663 676 689 703 715 723 737 750 761 773 783 789 795 800 804 806 807 808 808 807 806 803 800 800 797 793 791 788 786 787 788 787 788 790 787 788 792 795 802 812 820 826 836 843 850 867 894 914 919 935 962 980 996 1014 1027 1030 1032 1034 1035 1038 1041 1045 1048 1050 1051 1052 1053 1055 1057 1059 1064 1068 1070 1072 1073 1075 1077 1077 1078 1079 1078 1076 1073 1065 1053 1040 1026 1012 1000 986 976 971 963 951 945 941 930 916 901 891 882 870 861 856 854 856 862 867 874 883 897 906 915 922 927 938 948 950 959 979 998 1003 1004 1003 998 996 1000 1003 1006 1008 1012 1018 1020 1025 1028 1035 1039 1034 1028 1021 1016 1007 996 982 972 965 956 946 937 930 922 912 902 892 880 871 861 854 848 838 829 818 808 798 789 780 771 760 751 744 738 729 721 717 715 713 712 708 707 706 704 704 704 705 703 703 702 702 700 697 694 690 685 682
734 731 727 721 714 709 703 695 690 686 681 676 672 665 657 649 640 633 629 629 629 630 631 634 637 641 643 643 642 642 641 643 646 649 652 655 660 664 665 666 668 669 671 674 677 681 685 690 695 701 710 719 727 733 738 744 752 760 770 780 791 803 810 816 823 832 839 844 846 848 846 844 840 834 828 820 814 811 808 803 798 792 786 780 775 771 767 764 759 755 750 744 738 732 724 717 708 702 698 694 692 690 688 686 684 681 679 678 678 680 682 685 687 689 690 691 691 690 688 686 684 681 678 675 671 666 660 656 651 647 644 642 638 633 630 625 618 612 607 600 594 587 579 573 570 567 566 565 563 558 551 545 540 535 529 521 513 509 505 501 500 496 491 485 480 477 474 469 465 462 460 457 454 450 447 444 442 440 438 438 437 436 436 436 437 436 436 436 435 434 434 433 431 428 423 419 414 409 406 405 405 408 411 412 413 414 416 419 424 430 437 444 448 452 454 455 458 463 468 473 475 476 478 483 488 492 497 503 507 510 513 517 522 527 534 540 545 549 547 544 541 540 537 534 534 535 533 529 524 519 517 514 515 518 521 525 531 537 543 553 563 572 580 590 602 611 619 628 639 647 655 665 680 696 711 721 732 743 754 767 781 791 796 800 806 806 806 805 803 801 800 798 795 791 786 782 779 773 771 772 773 774 773 769 770 767 773 778 786 791 803 812 818 828 841 851 862 879 903 923 936 955 975 994 1010 1027 1031 1037 1037 1040 1042 1045 1048 1052 1053 1055 1054 1054 1054 1056 1061 1065 1069 1070 1070 1071 1073 1075 1075 1075 1074 1073 1071 1067 1060 1052 1038 1017 1001 990 978 970 959 947 936 928 927 921 904 892 887 878 864 853 845 842 844 850 857 867 874 880 889 896 904 908 919 935 934 941 960 980 983 989 986 986 983 984 988 994 998 999 1004 1006 1009 1017 1023 1031 1031 1027 1021 1016 1007 997 988 980 972 964 954 946 938 928 917 905 894 884 876 867 858 851 843 832 822 811 801 793 784 774 765 756 747 740 733 725 720 717 715 713 708 703 700 697 695 695 695 693 692 692 692 691 689 687 684 681 676
731 727 723 717 712 705 697 691 686 681 676 669 663 657 649 639 634 631 630 632 633 634 635 636 638 640 641 643 644 644 644 645 649 653 655 658 662 666 670 672 674 675 676 679 681 682 685 689 696 705 714 721 729 736 743 752 760 768 777 788 800 811 822 829 837 845 850 856 861 862 861 857 852 847 840 834 827 823 818 816 812 804 798 790 782 776 773 769 765 761 756 751 746 739 730 720 712 706 702 700 699 697 695 692 690 688 685 684 682 682 684 686 689 691 691 691 690 689 687 686 684 681 677 674 671 667 662 657 653 649 645 641 637 634 630 624 618 612 605 597 592 587 584 581 579 577 575 572 567 562 556 548 541 536 529 524 519 512 505 502 500 497 491 485 481 477 472 469 466 463 461 458 455 451 447 445 442 441 440 439 438 437 436 435 435 436 436 436 435 434 433 433 431 426 422 418 414 411 408 404 403 404 408 411 412 413 414 417 422 429 436 440 444 448 451 454 458 462 467 472 475 476 478 483 487 491 494 499 504 506 510 515 519 525 529 535 538 540 538 536 533 532 531 528 525 526 524 519 515 512 510 509 513 517 522 527 532 537 542 552 566 573 579 589 598 610 619 629 640 647 656 669 683 697 710 723 735 745 758 773 787 795 797 801 805 805 801 797 792 788 782 783 785 780 773 767 764 763 762 761 761 760 759 757 754 755 759 768 776 789 802 812 820 832 840 852 863 878 900 918 936 952 968 983 1001 1015 1024 1029 1039 1042 1045 1047 1048 1050 1054 1057 1058 1057 1058 1061 1065 1069 1070 1070 1069 1070 1072 1072 1071 1071 1070 1070 1069 1063 1057 1046 1031 1011 994 983 971 960 946 933 923 919 914 904 894 886 880 873 861 848 839 833 834 838 846 855 863 867 874 881 887 895 902 911 916 926 938 949 957 962 966 967 969 971 973 978 986 987 984 985 993 1000 1010 1014 1021 1017 1016 1008 1001 997 993 987 978 968 960 951 942 930 915 903 894 886 878 870 862 853 843 834 824 814 806 796 786 775 767 759 750 741 733 731 728 724 719 714 709 701 696 692 691 687 684 684 684 684 683 681 680 678 675 671 667
729 724 720 715 710 703 695 689 684 680 673 666 661 653 645 638 636 637 637 638 638 637 637 636 637 639 640 642 644 646 647 648 651 655 658 660 663 667 672 675 678 680 682 684 686 687 687 691 700 708 715 722 730 739 747 756 764 774 784 798 811 820 831 840 850 856 862 866 871 874 875 873 869 862 857 849 842 834 830 826 823 818 811 802 794 788 783 777 771 765 759 754 749 742 733 727 719 714 711 709 707 704 702 699 695 693 691 688 686 685 686 688 691 692 692 691 690 689 687 686 684 682 679 676 672 670 666 663 660 655 648 643 638 634 629 624 618 612 605 598 592 590 589 590 589 586 584 578 572 565 557 550 543 536 530 525 521 515 509 505 502 498 494 488 483 478 473 470 466 463 462 460 455 451 448 446 444 442 441 440 439 438 436 435 435 436 436 435 434 433 432 431 428 424 421 417 415 412 410 407 404 403 406 409 411 412 413 417 421 428 435 440 444 449 452 455 459 462 467 470 474 474 477 479 482 485 490 496 501 504 508 512 517 521 527 532 536 535 533 530 526 523 523 520 518 516 513 510 507 506 506 509 514 517 520 524 530 534 539 550 564 572 581 588 598 606 618 629 639 648 658 670 682 695 709 722 736 749 761 777 787 791 795 799 798 795 791 781 774 763 763 764 764 762 758 755 754 752 751 750 746 745 742 743 740 742 745 757 765 781 801 810 821 830 838 849 860 876 897 911 922 941 954 967 978 996 1006 1016 1029 1038 1045 1047 1048 1050 1054 1059 1060 1062 1063 1066 1068 1070 1071 1071 1071 1071 1071 1070 1067 1067 1066 1064 1062 1058 1050 1041 1026 1008 992 980 970 955 939 928 918 910 903 893 883 875 871 864 854 843 831 825 826 829 832 838 847 853 857 862 866 876 886 892 896 903 916 921 928 938 944 945 949 954 956 958 957 962 966 965 971 979 983 990 1001 1000 1001 997 994 998 999 990 979 969 961 952 941 930 916 903 894 885 877 869 862 854 843 833 825 815 806 797 787 775 767 760 751 743 738 735 735 732 722 715 708 702 696 691 688 683 678 677 676 675 672 671 670 668 666 664 660
725 722 718 711 705 699 693 687 681 677 673 667 659 652 645 641 641 642 642 641 641 640 639 639 641 642 643 644 646 649 650 650 652 656 661 664 666 668 673 677 682 686 687 690 693 694 695 697 701 710 716 725 735 742 751 759 767 777 790 803 818 827 836 847 857 869 874 879 883 888 889 887 882 875 870 862 855 847 842 836 830 827 820 813 806 801 795 788 780 773 767 760 753 745 739 733 729 727 724 721 717 713 708 704 701 697 695 693 691 690 690 690 692 694 694 692 691 690 689 687 685 683 679 675 673 672 669 666 662 658 653 647 643 638 632 626 620 614 607 600 597 596 597 597 597 594 590 583 575 567 560 552 545 539 532 527 523 518 513 508 503 498 494 489 483 478 475 472 469 465 464 461 457 453 450 447 444 442 441 440 439 438 436 435 436 436 436 436 434 434 433 431 427 424 420 417 415 414 411 407 404 403 404 408 410 411 412 415 419 425 431 439 445 449 452 455 459 462 464 466 468 471 474 477 479 482 486 492 497 500 505 509 513 517 521 527 530 529 526 523 519 515 512 510 509 505 504 503 502 503 507 512 514 518 521 524 529 533 538 548 561 571 581 591 598 610 619 631 641 650 661 673 679 690 708 723 736 749 763 775 782 787 790 792 790 783 775 765 759 750 746 745 744 741 741 740 736 731 731 732 732 731 732 731 732 734 741 751 761 773 786 802 813 827 838 847 857 872 889 900 910 924 938 946 957 971 991 999 1013 1026 1035 1044 1046 1052 1058 1062 1065 1066 1068 1070 1072 1071 1072 1072 1072 1071 1070 1068 1065 1064 1063 1062 1060 1054 1047 1040 1028 1011 994 984 976 965 948 929 914 902 892 884 877 870 862 853 846 835 823 819 818 820 822 824 830 838 845 847 849 857 865 872 880 883 887 897 903 912 919 923 926 928 929 935 934 930 934 945 951 953 959 959 971 977 981 982 984 996 994 988 979 971 961 949 939 929 918 906 895 885 875 865 858 851 843 832 822 813 804 793 783 776 770 761 753 746 743 742 739 733 724 716 711 706 700 695 691 684 677 672 669 666 663 662 661 661 659 657 654
724 720 714 708 702 696 691 684 679 675 671 663 656 649 643 640 642 644 644 643 642 641 641 643 645 646 646 646 649 651 652 652 655 658 661 666 669 671 675 679 685 689 691 696 702 705 706 705 707 712 718 730 737 743 753 763 770 778 790 804 819 832 841 852 864 874 883 891 897 901 904 902 896 889 881 874 866 860 853 847 839 833 827 820 812 807 802 796 787 779 771 763 756 749 744 740 737 736 736 733 729 723 718 713 709 706 703 700 698 696 694 694 695 695 696 695 692 691 690 688 685 683 680 678 675 674 671 667 661 657 653 651 646 641 636 629 623 616 610 606 604 603 603 604 602 598 592 587 580 571 562 555 548 541 534 530 525 521 515 510 503 498 493 488 484 481 478 475 470 468 466 461 457 454 451 447 444 442 441 439 438 436 435 435 436 436 436 435 434 434 432 430 427 423 420 418 416 414 411 407 404 403 403 406 410 411 411 413 417 423 430 437 444 450 452 455 458 459 461 462 465 468 474 477 479 481 485 490 495 500 504 508 511 514 517 518 521 520 518 514 508 503 500 499 498 496 494 497 499 503 509 514 517 520 523 527 530 535 541 548 556 566 575 587 597 608 619 628 640 648 658 668 678 690 703 721 737 749 760 772 781 785 789 787 779 769 761 753 745 739 734 732 729 725 724 720 715 717 718 718 719 718 720 722 727 733 741 750 760 771 781 792 805 819 833 844 850 862 876 886 897 910 923 936 941 952 974 984 996 1009 1019 1026 1037 1046 1057 1064 1068 1071 1072 1073 1073 1073 1074 1075 1074 1071 1069 1067 1066 1063 1061 1061 1060 1056 1052 1046 1037 1020 1004 992 983 974 958 936 918 902 890 882 875 867 855 845 839 829 817 809 809 811 813 815 820 829 835 838 838 838 844 851 859 867 872 878 883 888 899 904 905 905 908 911 914 914 914 922 931 935 938 937 941 947 959 964 968 978 984 982 977 971 962 951 937 927 918 907 896 884 873 864 855 847 839 829 820 811 800 793 784 777 771 763 755 750 747 745 740 732 726 723 717 709 704 700 695 689 683 678 672 666 661 657 655 654 652 650 647
