ncols        137
nrows        129
xllcorner    -71.322361111111
yllcorner    44.252361111111
cellsize 30
1422 1423 1423 1423 1426 1427 1429 1432 1436 1438 1441 1444 1446 1447 1445 1443 1442 1440 1439 1436 1434 1433 1431 1427 1423 1420 1416 1409 1402 1394 1385 1377 1368 1355 1343 1332 1323 1314 1309 1307 1309 1311 1316 1321 1324 1323 1321 1318 1315 1310 1306 1304 1302 1301 1294 1288 1282 1277 1273 1268 1262 1257 1250 1244 1237 1231 1227 1223 1221 1222 1223 1223 1220 1218 1215 1216 1216 1219 1225 1237 1246 1254 1264 1276 1287 1297 1309 1319 1332 1347 1361 1380 1398 1424 1440 1453 1468 1480 1502 1523 1546 1564 1583 1599 1612 1622 1627 1635 1641 1643 1642 1637 1630 1625 1619 1611 1604 1599 1592 1582 1575 1570 1565 1556 1549 1543 1536 1528 1522 1515 1506 1497 1489 1481 1476 1470 1462 
1433 1434 1436 1442 1444 1444 1443 1444 1447 1450 1451 1453 1453 1452 1450 1449 1449 1448 1446 1444 1441 1440 1438 1434 1430 1425 1418 1411 1404 1394 1386 1378 1368 1357 1348 1340 1329 1321 1318 1319 1322 1323 1327 1331 1333 1332 1329 1325 1322 1317 1316 1314 1314 1309 1307 1304 1297 1292 1285 1280 1274 1267 1263 1258 1250 1243 1237 1233 1230 1228 1229 1228 1225 1223 1221 1221 1220 1221 1226 1235 1245 1253 1262 1271 1279 1289 1299 1311 1323 1332 1351 1370 1387 1412 1432 1444 1466 1480 1499 1516 1535 1553 1575 1590 1601 1613 1625 1635 1646 1649 1647 1642 1637 1631 1623 1618 1613 1606 1598 1589 1582 1576 1569 1560 1552 1546 1539 1532 1526 1519 1510 1501 1491 1484 1478 1470 1462 
1446 1448 1454 1458 1460 1459 1458 1456 1456 1458 1459 1459 1459 1458 1457 1456 1456 1454 1452 1450 1448 1446 1444 1440 1436 1431 1424 1415 1409 1400 1392 1383 1372 1361 1353 1345 1336 1328 1327 1329 1331 1333 1337 1341 1344 1343 1340 1336 1333 1329 1328 1326 1323 1318 1314 1312 1309 1301 1293 1288 1282 1276 1272 1268 1260 1251 1246 1242 1239 1234 1232 1229 1228 1226 1226 1226 1226 1226 1229 1236 1244 1251 1262 1271 1277 1284 1293 1303 1314 1325 1343 1365 1379 1398 1420 1439 1454 1475 1495 1510 1523 1541 1565 1577 1591 1606 1621 1636 1647 1652 1651 1646 1643 1638 1631 1623 1619 1614 1603 1594 1589 1585 1577 1568 1557 1549 1541 1534 1527 1521 1514 1507 1501 1491 1481 1471 1463 
1463 1466 1468 1470 1472 1473 1470 1467 1467 1468 1467 1467 1465 1465 1465 1466 1466 1464 1460 1457 1455 1453 1450 1445 1442 1437 1431 1424 1416 1409 1398 1388 1380 1369 1358 1351 1344 1340 1337 1339 1341 1344 1350 1354 1355 1355 1350 1346 1345 1344 1341 1338 1334 1328 1322 1319 1315 1310 1303 1298 1292 1284 1277 1272 1265 1257 1252 1250 1247 1243 1239 1236 1233 1233 1233 1234 1235 1235 1235 1239 1245 1252 1262 1271 1277 1282 1288 1298 1312 1322 1339 1364 1382 1392 1411 1437 1452 1466 1483 1505 1518 1526 1548 1568 1585 1605 1624 1639 1651 1655 1654 1653 1650 1646 1639 1631 1624 1616 1606 1600 1595 1590 1584 1573 1563 1554 1544 1536 1529 1521 1516 1511 1502 1493 1483 1472 1462 
1478 1480 1482 1482 1484 1484 1484 1479 1478 1477 1477 1476 1475 1475 1475 1474 1472 1470 1468 1465 1463 1460 1456 1452 1448 1444 1438 1429 1422 1415 1407 1397 1389 1379 1368 1360 1357 1352 1349 1349 1351 1357 1363 1366 1367 1364 1361 1359 1359 1357 1354 1351 1345 1338 1332 1329 1324 1318 1313 1307 1298 1290 1283 1276 1269 1261 1257 1255 1253 1252 1249 1245 1242 1244 1244 1247 1249 1246 1246 1246 1250 1255 1264 1270 1275 1280 1286 1295 1306 1326 1350 1369 1385 1398 1412 1430 1448 1459 1473 1494 1514 1525 1538 1558 1583 1604 1621 1636 1648 1655 1658 1659 1659 1655 1651 1642 1631 1622 1616 1610 1603 1594 1585 1576 1567 1558 1549 1539 1531 1525 1518 1509 1500 1490 1482 1474 1465 
1496 1497 1498 1498 1496 1495 1493 1492 1491 1490 1490 1487 1486 1485 1486 1484 1482 1480 1477 1474 1470 1466 1462 1457 1453 1449 1443 1437 1429 1421 1413 1406 1399 1390 1380 1372 1368 1366 1363 1363 1366 1369 1373 1376 1378 1377 1375 1373 1373 1371 1366 1362 1358 1350 1344 1338 1334 1330 1323 1314 1305 1296 1289 1282 1275 1267 1265 1263 1263 1262 1260 1257 1260 1259 1262 1261 1258 1256 1253 1253 1253 1258 1265 1270 1274 1277 1283 1289 1298 1320 1360 1376 1388 1398 1415 1427 1445 1455 1464 1481 1506 1520 1532 1550 1569 1589 1612 1627 1640 1652 1661 1669 1667 1662 1658 1652 1642 1633 1626 1620 1610 1600 1591 1581 1572 1563 1551 1540 1532 1526 1518 1510 1500 1489 1479 1475 1470 
1510 1510 1511 1508 1504 1503 1502 1501 1501 1499 1499 1499 1497 1495 1493 1492 1491 1488 1485 1482 1478 1475 1470 1465 1460 1455 1450 1443 1436 1428 1421 1415 1408 1400 1392 1385 1380 1377 1377 1378 1379 1380 1382 1386 1388 1388 1387 1386 1385 1385 1383 1380 1374 1368 1360 1354 1348 1343 1336 1328 1315 1308 1300 1290 1282 1276 1274 1273 1273 1271 1272 1273 1276 1277 1276 1275 1270 1264 1261 1258 1256 1258 1264 1269 1272 1275 1279 1286 1293 1316 1348 1372 1383 1394 1414 1423 1436 1450 1460 1474 1497 1515 1529 1541 1555 1575 1601 1621 1633 1644 1659 1672 1672 1668 1664 1656 1647 1638 1630 1622 1614 1605 1595 1587 1576 1565 1553 1541 1533 1526 1518 1509 1499 1490 1481 1475 1470 
1522 1521 1520 1518 1514 1512 1513 1513 1510 1509 1510 1509 1507 1507 1505 1502 1499 1496 1493 1490 1486 1481 1477 1472 1467 1463 1458 1451 1443 1435 1428 1424 1417 1410 1404 1396 1390 1389 1389 1393 1395 1394 1394 1397 1400 1401 1401 1398 1398 1398 1396 1394 1389 1385 1380 1373 1368 1359 1350 1343 1335 1322 1311 1300 1290 1284 1282 1282 1281 1281 1281 1283 1287 1288 1286 1285 1283 1275 1268 1262 1258 1258 1261 1266 1271 1274 1279 1285 1291 1319 1343 1364 1377 1388 1401 1417 1426 1441 1459 1470 1489 1511 1527 1536 1546 1566 1598 1620 1630 1638 1655 1672 1675 1672 1669 1662 1649 1640 1631 1627 1621 1612 1602 1591 1580 1569 1558 1547 1535 1525 1516 1507 1498 1488 1480 1473 1467 
1534 1532 1529 1526 1524 1523 1522 1522 1522 1521 1521 1520 1519 1518 1516 1513 1509 1507 1503 1500 1496 1489 1484 1479 1475 1471 1466 1461 1453 1446 1440 1434 1429 1421 1413 1408 1403 1403 1407 1407 1408 1407 1407 1406 1408 1411 1412 1412 1412 1412 1411 1408 1408 1407 1400 1394 1384 1375 1364 1357 1348 1340 1324 1309 1299 1293 1290 1289 1290 1289 1288 1288 1290 1292 1292 1291 1289 1282 1274 1267 1263 1261 1263 1266 1271 1275 1280 1288 1294 1305 1334 1359 1373 1383 1392 1407 1422 1436 1455 1473 1484 1504 1525 1536 1545 1565 1596 1619 1632 1638 1649 1666 1673 1673 1671 1665 1652 1643 1637 1631 1624 1615 1606 1594 1583 1572 1563 1553 1539 1526 1516 1507 1496 1487 1479 1472 1465 
1541 1541 1540 1538 1536 1535 1533 1533 1532 1531 1530 1528 1529 1528 1527 1523 1521 1518 1514 1511 1506 1498 1492 1488 1484 1479 1475 1470 1462 1455 1450 1445 1439 1433 1427 1423 1422 1424 1425 1423 1420 1418 1417 1419 1422 1422 1423 1424 1425 1428 1430 1428 1427 1423 1418 1410 1401 1392 1383 1370 1359 1349 1337 1323 1310 1302 1299 1298 1297 1297 1293 1291 1291 1292 1292 1293 1291 1286 1278 1272 1268 1267 1268 1272 1276 1279 1284 1291 1299 1310 1328 1351 1370 1380 1390 1401 1424 1433 1444 1467 1483 1501 1518 1539 1555 1568 1592 1611 1628 1643 1656 1664 1671 1672 1670 1665 1656 1647 1637 1629 1622 1614 1606 1597 1586 1576 1565 1553 1541 1529 1518 1509 1499 1489 1480 1473 1465 
1548 1547 1547 1546 1544 1544 1544 1544 1542 1539 1537 1536 1535 1537 1536 1533 1530 1527 1526 1524 1517 1511 1502 1496 1493 1488 1484 1479 1472 1464 1458 1452 1448 1445 1441 1439 1436 1437 1437 1435 1434 1432 1432 1434 1436 1437 1437 1438 1442 1448 1451 1449 1443 1438 1431 1426 1418 1407 1399 1386 1371 1359 1346 1335 1322 1312 1307 1304 1302 1298 1296 1294 1293 1292 1292 1292 1289 1285 1280 1275 1272 1271 1274 1280 1285 1287 1289 1294 1301 1312 1324 1342 1360 1374 1385 1395 1413 1431 1442 1463 1482 1501 1518 1535 1553 1572 1592 1612 1630 1646 1659 1669 1674 1673 1669 1664 1656 1648 1639 1628 1619 1612 1605 1598 1589 1577 1567 1557 1543 1530 1519 1509 1499 1490 1482 1475 1468 
1556 1556 1554 1552 1551 1550 1552 1551 1550 1549 1547 1545 1546 1545 1544 1541 1539 1537 1536 1533 1530 1522 1515 1509 1505 1500 1496 1492 1486 1475 1467 1463 1458 1457 1454 1453 1451 1449 1447 1446 1447 1446 1446 1447 1450 1452 1455 1459 1461 1466 1468 1468 1460 1452 1447 1440 1434 1425 1413 1398 1383 1371 1356 1343 1332 1321 1314 1308 1303 1300 1298 1296 1294 1293 1291 1290 1288 1284 1282 1280 1278 1278 1281 1284 1289 1291 1292 1295 1300 1309 1322 1336 1352 1362 1376 1386 1401 1427 1443 1465 1484 1501 1519 1535 1550 1572 1600 1621 1635 1648 1660 1667 1673 1673 1668 1661 1656 1649 1639 1629 1621 1613 1605 1598 1590 1580 1569 1558 1544 1532 1521 1510 1502 1496 1489 1480 1470 
1562 1562 1562 1562 1562 1561 1559 1558 1558 1558 1557 1557 1556 1555 1553 1551 1549 1548 1546 1544 1538 1533 1529 1523 1518 1512 1507 1502 1494 1487 1480 1474 1472 1471 1470 1472 1472 1468 1465 1462 1459 1459 1459 1459 1460 1464 1470 1476 1479 1483 1483 1483 1478 1473 1463 1455 1448 1438 1425 1410 1395 1383 1368 1354 1340 1330 1320 1313 1309 1305 1301 1298 1295 1293 1293 1291 1289 1286 1286 1285 1284 1285 1287 1287 1289 1291 1293 1295 1299 1308 1321 1335 1347 1358 1368 1378 1390 1419 1448 1472 1490 1505 1519 1535 1560 1587 1607 1625 1638 1651 1658 1664 1668 1669 1666 1660 1653 1645 1638 1629 1620 1612 1604 1595 1587 1579 1570 1559 1548 1539 1529 1520 1513 1504 1495 1484 1474 
1569 1569 1571 1573 1574 1571 1569 1567 1565 1567 1567 1566 1565 1565 1564 1560 1558 1558 1556 1553 1549 1544 1540 1535 1529 1522 1519 1512 1507 1501 1494 1489 1485 1484 1484 1484 1486 1485 1480 1475 1472 1472 1472 1472 1472 1476 1482 1488 1492 1496 1498 1496 1495 1488 1480 1467 1459 1447 1432 1419 1408 1393 1379 1369 1356 1341 1330 1321 1316 1312 1307 1302 1299 1296 1296 1294 1291 1289 1289 1289 1289 1289 1290 1290 1291 1292 1293 1295 1298 1307 1322 1335 1347 1358 1366 1371 1383 1425 1451 1476 1495 1507 1520 1537 1558 1585 1607 1621 1630 1643 1655 1661 1664 1665 1664 1657 1650 1642 1634 1626 1618 1611 1601 1593 1584 1577 1568 1557 1547 1538 1530 1522 1515 1507 1497 1486 1476 
1579 1579 1581 1582 1582 1582 1579 1578 1577 1576 1574 1572 1571 1571 1571 1568 1566 1566 1565 1562 1560 1557 1553 1548 1541 1537 1531 1527 1521 1516 1511 1505 1499 1497 1497 1496 1496 1495 1493 1491 1488 1488 1488 1488 1488 1489 1494 1501 1506 1510 1510 1509 1505 1497 1487 1476 1467 1458 1442 1425 1415 1407 1396 1382 1369 1357 1344 1335 1328 1320 1313 1309 1304 1301 1298 1295 1293 1293 1293 1293 1293 1293 1293 1294 1295 1294 1293 1293 1298 1306 1319 1334 1345 1356 1364 1366 1386 1434 1451 1474 1493 1510 1527 1540 1556 1577 1602 1620 1626 1636 1648 1657 1661 1662 1659 1653 1646 1638 1629 1621 1615 1608 1598 1591 1584 1576 1566 1555 1546 1538 1530 1523 1514 1505 1495 1484 1475 
1591 1591 1591 1590 1589 1588 1587 1586 1587 1585 1582 1580 1579 1581 1581 1578 1575 1574 1572 1571 1569 1569 1567 1559 1552 1547 1544 1539 1534 1530 1527 1522 1515 1515 1514 1512 1510 1507 1506 1507 1508 1510 1509 1510 1510 1515 1518 1520 1523 1524 1524 1521 1514 1504 1497 1488 1480 1471 1460 1447 1434 1424 1413 1400 1385 1373 1363 1353 1341 1332 1324 1316 1311 1306 1300 1298 1296 1297 1297 1299 1299 1298 1297 1297 1297 1296 1294 1295 1299 1306 1318 1333 1343 1351 1361 1365 1385 1433 1451 1467 1489 1509 1528 1543 1562 1582 1604 1621 1629 1637 1644 1653 1657 1659 1656 1651 1642 1635 1627 1619 1609 1601 1593 1586 1581 1573 1563 1553 1545 1537 1528 1521 1513 1503 1491 1480 1471 
1604 1603 1600 1598 1597 1596 1596 1597 1596 1597 1595 1593 1591 1593 1591 1588 1586 1585 1583 1581 1580 1580 1576 1571 1564 1559 1556 1554 1549 1545 1545 1544 1540 1539 1536 1533 1528 1521 1519 1522 1523 1524 1524 1527 1529 1533 1535 1535 1537 1537 1535 1531 1523 1513 1504 1497 1492 1486 1476 1464 1451 1441 1429 1420 1406 1389 1376 1366 1357 1345 1335 1327 1320 1315 1310 1305 1302 1301 1302 1302 1303 1302 1301 1300 1299 1299 1296 1297 1301 1304 1317 1332 1338 1345 1358 1374 1382 1427 1453 1465 1479 1498 1529 1548 1564 1584 1607 1619 1628 1638 1646 1650 1655 1655 1654 1649 1642 1634 1626 1615 1605 1597 1587 1580 1575 1568 1559 1550 1539 1531 1525 1517 1508 1499 1488 1475 1464 
1616 1615 1613 1609 1608 1608 1609 1607 1606 1604 1603 1602 1600 1598 1597 1596 1595 1595 1595 1595 1592 1589 1587 1585 1580 1573 1571 1568 1565 1561 1561 1559 1558 1557 1555 1552 1552 1546 1540 1539 1539 1539 1542 1543 1545 1547 1548 1549 1550 1548 1543 1537 1529 1521 1513 1507 1503 1497 1487 1477 1466 1454 1444 1434 1424 1411 1394 1382 1374 1364 1351 1341 1334 1326 1319 1315 1311 1310 1307 1306 1305 1304 1303 1303 1303 1302 1301 1301 1302 1306 1312 1327 1335 1341 1357 1377 1388 1413 1445 1463 1474 1500 1536 1551 1566 1587 1609 1622 1631 1641 1650 1653 1654 1654 1651 1645 1638 1631 1623 1616 1608 1599 1588 1578 1571 1563 1552 1542 1534 1526 1518 1511 1503 1492 1478 1464 1453 
1626 1627 1624 1620 1617 1617 1616 1615 1612 1610 1609 1608 1608 1608 1609 1609 1607 1606 1606 1604 1603 1600 1599 1596 1593 1588 1585 1583 1580 1578 1574 1574 1572 1572 1571 1572 1572 1567 1562 1557 1552 1551 1553 1556 1558 1560 1560 1561 1561 1561 1554 1546 1538 1532 1526 1518 1513 1508 1501 1493 1482 1470 1460 1449 1436 1424 1414 1403 1392 1386 1376 1363 1351 1342 1332 1325 1321 1319 1316 1311 1308 1307 1307 1307 1307 1306 1304 1303 1305 1310 1318 1325 1331 1340 1356 1374 1381 1394 1436 1465 1484 1506 1538 1554 1568 1583 1605 1625 1636 1646 1654 1659 1658 1657 1653 1645 1636 1630 1622 1614 1606 1595 1584 1576 1568 1557 1545 1536 1529 1519 1510 1503 1494 1480 1467 1452 1443 
1634 1634 1632 1627 1623 1620 1621 1619 1621 1620 1621 1620 1618 1617 1616 1616 1617 1617 1616 1613 1610 1608 1606 1605 1601 1599 1597 1594 1591 1590 1588 1590 1592 1591 1590 1588 1584 1583 1578 1575 1571 1567 1567 1569 1571 1569 1568 1569 1570 1567 1562 1558 1551 1545 1539 1534 1526 1520 1515 1506 1497 1486 1474 1462 1452 1440 1430 1423 1418 1412 1394 1380 1369 1357 1348 1336 1330 1326 1322 1318 1314 1309 1309 1308 1307 1305 1305 1305 1307 1314 1323 1326 1333 1339 1356 1371 1378 1392 1437 1473 1488 1508 1539 1563 1571 1583 1606 1627 1637 1647 1659 1664 1665 1663 1654 1640 1634 1628 1622 1613 1602 1591 1582 1573 1563 1552 1541 1530 1519 1510 1501 1489 1478 1466 1453 1442 1432 
1641 1640 1636 1633 1630 1631 1630 1631 1631 1632 1633 1633 1632 1628 1625 1626 1627 1626 1624 1621 1618 1617 1617 1615 1612 1609 1606 1605 1604 1601 1602 1604 1605 1606 1604 1600 1596 1593 1591 1589 1587 1586 1586 1584 1581 1578 1578 1578 1578 1574 1570 1565 1561 1554 1548 1545 1541 1535 1528 1519 1509 1499 1487 1477 1467 1457 1449 1441 1434 1431 1411 1387 1376 1369 1356 1345 1337 1331 1327 1323 1317 1312 1310 1309 1307 1306 1306 1307 1309 1316 1326 1333 1339 1346 1358 1374 1379 1394 1447 1476 1488 1498 1517 1552 1574 1586 1602 1621 1635 1645 1656 1663 1666 1665 1660 1646 1636 1631 1624 1615 1602 1591 1581 1570 1558 1547 1536 1525 1515 1504 1492 1480 1468 1456 1443 1432 1422 
1650 1647 1645 1644 1645 1646 1645 1645 1643 1643 1645 1643 1642 1641 1638 1636 1637 1636 1634 1629 1626 1626 1627 1626 1624 1620 1619 1618 1618 1618 1616 1616 1614 1614 1613 1611 1609 1606 1603 1601 1601 1601 1601 1600 1598 1596 1594 1591 1585 1585 1582 1577 1569 1564 1560 1556 1554 1549 1540 1530 1520 1509 1499 1489 1482 1473 1462 1453 1445 1434 1423 1409 1391 1382 1364 1353 1345 1338 1332 1328 1322 1317 1314 1313 1311 1311 1312 1313 1312 1319 1330 1337 1343 1352 1364 1379 1388 1393 1427 1466 1487 1497 1513 1540 1570 1589 1601 1613 1628 1640 1650 1659 1663 1665 1663 1656 1646 1633 1623 1613 1600 1587 1574 1562 1552 1542 1531 1519 1510 1499 1486 1475 1463 1451 1439 1426 1413 
1658 1656 1655 1657 1656 1655 1655 1654 1655 1654 1651 1649 1649 1650 1649 1647 1646 1645 1643 1641 1637 1635 1637 1638 1637 1637 1635 1635 1632 1633 1630 1626 1625 1624 1624 1623 1621 1619 1619 1616 1614 1613 1612 1612 1612 1613 1610 1607 1600 1597 1594 1591 1586 1583 1576 1569 1563 1557 1550 1541 1535 1525 1513 1503 1495 1487 1477 1466 1453 1443 1434 1425 1415 1401 1378 1364 1350 1345 1340 1335 1328 1322 1319 1317 1317 1318 1320 1319 1320 1325 1333 1337 1346 1356 1371 1384 1389 1399 1417 1439 1490 1500 1514 1537 1571 1592 1601 1614 1628 1639 1649 1656 1661 1662 1659 1651 1641 1632 1623 1611 1598 1584 1570 1558 1547 1537 1526 1517 1508 1497 1485 1472 1460 1451 1439 1424 1411 
1666 1665 1666 1664 1662 1661 1660 1661 1663 1664 1660 1657 1659 1660 1657 1655 1654 1654 1654 1652 1649 1647 1646 1648 1649 1649 1650 1650 1649 1648 1645 1639 1636 1638 1642 1640 1638 1639 1638 1633 1631 1628 1625 1624 1624 1625 1625 1620 1615 1609 1605 1602 1598 1596 1590 1581 1573 1568 1561 1555 1549 1542 1530 1517 1507 1499 1491 1480 1467 1453 1442 1433 1423 1414 1395 1379 1364 1354 1350 1346 1340 1333 1328 1322 1322 1324 1326 1327 1326 1329 1336 1341 1350 1364 1378 1386 1395 1405 1420 1442 1485 1499 1515 1533 1561 1589 1609 1624 1635 1644 1654 1659 1663 1660 1654 1645 1635 1628 1618 1609 1596 1583 1571 1558 1546 1535 1523 1514 1505 1493 1477 1465 1457 1446 1435 1423 1411 
1671 1672 1672 1671 1668 1669 1669 1668 1670 1670 1668 1669 1671 1669 1666 1664 1664 1665 1663 1660 1658 1656 1657 1658 1658 1657 1658 1658 1659 1658 1658 1655 1650 1652 1657 1658 1658 1654 1652 1651 1648 1645 1641 1640 1638 1638 1636 1633 1626 1621 1621 1617 1614 1610 1604 1594 1589 1581 1575 1567 1560 1551 1541 1529 1518 1508 1500 1490 1478 1467 1456 1444 1431 1421 1409 1393 1378 1367 1364 1359 1355 1350 1341 1332 1330 1332 1334 1333 1332 1335 1340 1347 1356 1369 1383 1394 1414 1428 1437 1446 1474 1530 1536 1566 1582 1596 1614 1629 1642 1651 1656 1657 1656 1655 1649 1640 1634 1626 1614 1602 1591 1579 1568 1556 1544 1533 1520 1511 1502 1490 1475 1462 1452 1441 1428 1418 1408 
1676 1677 1678 1678 1678 1677 1677 1675 1675 1675 1676 1679 1680 1678 1676 1674 1674 1673 1671 1668 1666 1666 1668 1668 1668 1667 1666 1667 1667 1668 1668 1669 1668 1670 1671 1673 1671 1666 1663 1662 1661 1658 1657 1656 1652 1649 1649 1644 1639 1637 1636 1638 1632 1626 1619 1611 1607 1601 1590 1579 1569 1559 1550 1539 1526 1517 1509 1501 1490 1483 1473 1460 1447 1438 1427 1412 1396 1388 1379 1371 1365 1360 1356 1345 1341 1343 1341 1340 1341 1344 1350 1359 1368 1379 1390 1402 1432 1448 1457 1466 1502 1547 1580 1586 1594 1606 1620 1634 1645 1655 1661 1660 1656 1648 1641 1634 1627 1619 1612 1600 1587 1577 1567 1553 1541 1528 1516 1508 1496 1481 1466 1453 1444 1436 1427 1417 1405 
1680 1682 1682 1683 1684 1685 1684 1683 1683 1684 1685 1687 1685 1684 1682 1680 1678 1678 1678 1678 1677 1676 1676 1678 1678 1679 1678 1679 1680 1680 1679 1681 1682 1683 1684 1683 1681 1676 1674 1673 1671 1667 1666 1665 1664 1661 1659 1658 1653 1649 1650 1649 1645 1639 1635 1630 1625 1618 1609 1597 1585 1575 1563 1551 1538 1529 1520 1513 1505 1498 1489 1474 1460 1449 1436 1426 1414 1403 1393 1384 1377 1369 1362 1358 1354 1351 1352 1353 1355 1360 1364 1373 1384 1393 1404 1410 1441 1459 1474 1487 1519 1576 1584 1594 1604 1616 1627 1639 1649 1657 1660 1659 1653 1646 1636 1628 1619 1610 1601 1593 1584 1573 1561 1547 1533 1522 1512 1498 1486 1473 1459 1449 1440 1432 1422 1413 1403 
1683 1682 1681 1685 1688 1690 1692 1691 1692 1692 1692 1690 1689 1688 1687 1686 1684 1683 1684 1685 1685 1683 1683 1686 1693 1693 1693 1692 1693 1692 1693 1693 1692 1692 1693 1692 1689 1687 1687 1685 1680 1675 1673 1674 1673 1670 1668 1667 1666 1663 1660 1656 1655 1651 1648 1644 1636 1631 1623 1611 1599 1590 1580 1566 1555 1545 1536 1524 1516 1509 1498 1485 1473 1461 1450 1440 1430 1421 1410 1401 1394 1387 1377 1370 1369 1366 1365 1368 1374 1377 1378 1386 1398 1410 1422 1430 1459 1470 1493 1513 1522 1567 1583 1600 1612 1624 1633 1643 1650 1656 1655 1652 1646 1638 1628 1618 1609 1600 1593 1585 1574 1562 1548 1536 1526 1514 1501 1488 1476 1465 1456 1446 1435 1426 1417 1407 1395 
1680 1679 1681 1686 1691 1695 1696 1696 1695 1696 1694 1693 1693 1693 1693 1692 1691 1691 1691 1691 1691 1691 1692 1697 1704 1710 1707 1707 1704 1704 1704 1706 1701 1699 1699 1698 1697 1695 1694 1693 1690 1684 1684 1683 1682 1678 1676 1676 1675 1673 1671 1671 1672 1669 1663 1654 1648 1640 1633 1623 1611 1603 1593 1581 1570 1561 1551 1543 1534 1523 1513 1501 1491 1481 1467 1456 1444 1432 1424 1417 1412 1405 1397 1388 1381 1379 1379 1383 1386 1390 1395 1403 1413 1427 1442 1463 1478 1502 1530 1540 1563 1579 1593 1607 1619 1629 1640 1646 1649 1650 1648 1644 1637 1626 1616 1606 1599 1592 1583 1574 1561 1548 1538 1529 1516 1503 1489 1478 1468 1458 1444 1433 1425 1417 1406 1393 1382 
1672 1676 1680 1686 1692 1697 1702 1700 1700 1700 1699 1698 1698 1698 1697 1697 1697 1697 1696 1696 1697 1697 1701 1708 1714 1718 1717 1715 1713 1711 1711 1710 1709 1706 1706 1705 1703 1703 1703 1702 1699 1694 1692 1692 1691 1688 1687 1686 1686 1686 1686 1690 1691 1688 1681 1671 1662 1653 1643 1633 1624 1617 1606 1595 1585 1576 1567 1558 1550 1541 1533 1519 1508 1495 1484 1471 1461 1448 1437 1431 1426 1420 1414 1407 1401 1397 1396 1396 1400 1406 1413 1420 1433 1449 1468 1489 1507 1534 1544 1563 1584 1598 1610 1618 1627 1634 1640 1643 1646 1645 1641 1633 1626 1615 1605 1595 1585 1579 1574 1563 1552 1542 1532 1521 1509 1492 1476 1464 1453 1444 1432 1417 1408 1402 1391 1379 1368 
1662 1669 1675 1678 1686 1701 1708 1708 1706 1706 1703 1701 1700 1699 1698 1698 1699 1699 1700 1701 1700 1702 1707 1714 1720 1724 1725 1722 1722 1718 1715 1716 1714 1714 1714 1711 1708 1708 1707 1707 1705 1704 1704 1703 1700 1700 1698 1696 1697 1696 1698 1702 1704 1700 1699 1689 1676 1664 1653 1645 1637 1629 1619 1608 1601 1594 1583 1575 1565 1555 1546 1535 1522 1510 1497 1491 1483 1473 1461 1450 1444 1438 1434 1428 1423 1421 1419 1418 1420 1424 1434 1448 1459 1471 1488 1507 1525 1544 1562 1577 1592 1607 1619 1628 1633 1637 1640 1642 1642 1638 1631 1622 1613 1604 1595 1587 1580 1572 1565 1554 1542 1531 1522 1509 1494 1477 1460 1448 1437 1425 1412 1402 1391 1381 1371 1361 1350 
1651 1658 1662 1666 1676 1692 1703 1704 1707 1705 1704 1700 1700 1700 1698 1698 1698 1699 1700 1702 1705 1708 1716 1723 1730 1732 1730 1728 1726 1724 1723 1722 1721 1720 1719 1718 1716 1714 1713 1712 1712 1714 1716 1715 1711 1708 1708 1710 1709 1708 1709 1710 1710 1708 1706 1701 1691 1677 1663 1655 1648 1640 1630 1621 1615 1610 1600 1591 1582 1569 1562 1553 1540 1528 1518 1508 1500 1489 1481 1473 1463 1456 1448 1443 1440 1438 1439 1439 1441 1448 1460 1471 1481 1490 1505 1522 1545 1562 1581 1593 1604 1618 1627 1634 1638 1640 1641 1642 1638 1632 1624 1613 1603 1595 1587 1578 1571 1565 1552 1540 1529 1519 1508 1496 1480 1464 1448 1436 1426 1413 1400 1389 1379 1368 1358 1348 1339 
1637 1644 1647 1653 1661 1674 1682 1690 1698 1696 1692 1694 1699 1700 1700 1698 1698 1699 1701 1704 1707 1713 1721 1732 1737 1738 1735 1732 1729 1727 1728 1728 1727 1725 1725 1724 1724 1725 1723 1722 1723 1724 1728 1727 1723 1720 1722 1724 1725 1723 1721 1722 1719 1717 1714 1709 1701 1688 1674 1665 1660 1653 1643 1634 1626 1620 1613 1605 1597 1589 1580 1568 1558 1547 1536 1526 1516 1507 1498 1490 1483 1472 1462 1455 1453 1454 1456 1457 1461 1469 1478 1489 1496 1508 1523 1539 1561 1578 1593 1611 1624 1629 1633 1637 1638 1639 1639 1637 1634 1628 1620 1609 1599 1589 1582 1574 1564 1554 1541 1531 1520 1508 1496 1484 1470 1453 1438 1426 1416 1404 1389 1376 1367 1359 1349 1338 1331 
1619 1631 1635 1639 1645 1649 1659 1672 1679 1676 1680 1685 1693 1699 1697 1697 1698 1700 1702 1704 1709 1712 1718 1727 1734 1737 1736 1734 1732 1730 1730 1731 1730 1729 1728 1729 1730 1730 1730 1730 1730 1732 1734 1737 1736 1734 1734 1736 1738 1737 1737 1736 1733 1727 1722 1716 1709 1699 1688 1679 1673 1665 1657 1649 1640 1633 1627 1619 1611 1604 1599 1589 1580 1569 1557 1545 1535 1529 1522 1511 1501 1492 1482 1476 1474 1474 1476 1478 1482 1489 1497 1505 1516 1528 1539 1550 1568 1586 1604 1623 1637 1642 1642 1642 1643 1642 1639 1634 1630 1625 1618 1610 1600 1591 1581 1569 1556 1545 1534 1523 1511 1501 1489 1470 1453 1439 1425 1414 1403 1391 1376 1361 1352 1342 1334 1326 1312 
1604 1617 1621 1626 1629 1629 1638 1648 1656 1665 1669 1675 1682 1689 1691 1692 1695 1699 1701 1704 1707 1710 1713 1721 1729 1734 1737 1737 1734 1733 1732 1732 1733 1732 1730 1730 1732 1736 1736 1735 1734 1735 1738 1740 1743 1746 1747 1750 1749 1749 1748 1746 1744 1739 1732 1726 1717 1711 1705 1697 1689 1681 1672 1664 1656 1648 1641 1634 1626 1618 1611 1603 1594 1588 1575 1562 1555 1548 1541 1532 1521 1512 1502 1494 1491 1492 1494 1495 1497 1503 1511 1521 1532 1543 1556 1568 1581 1597 1618 1635 1646 1650 1650 1649 1647 1643 1639 1634 1627 1621 1616 1608 1598 1588 1576 1565 1554 1539 1527 1516 1505 1491 1473 1459 1446 1434 1419 1404 1391 1376 1358 1346 1334 1323 1312 1298 1286 
1578 1588 1600 1607 1607 1608 1615 1622 1635 1640 1659 1655 1665 1676 1681 1683 1687 1692 1698 1701 1703 1706 1709 1715 1722 1731 1735 1738 1738 1735 1733 1734 1735 1735 1733 1732 1735 1739 1739 1738 1737 1740 1743 1745 1746 1753 1759 1762 1762 1762 1758 1757 1754 1752 1748 1738 1729 1723 1718 1712 1703 1694 1684 1677 1669 1660 1652 1644 1637 1631 1623 1613 1604 1596 1588 1579 1570 1562 1554 1546 1539 1530 1521 1512 1506 1506 1508 1510 1514 1519 1526 1538 1552 1565 1580 1593 1603 1612 1623 1635 1646 1652 1653 1653 1650 1645 1640 1634 1627 1619 1612 1604 1593 1583 1574 1564 1551 1537 1523 1510 1496 1480 1463 1450 1439 1428 1414 1398 1384 1369 1356 1342 1328 1314 1300 1289 1280 
1554 1560 1564 1575 1587 1590 1595 1596 1596 1603 1620 1626 1638 1657 1669 1672 1676 1685 1694 1697 1699 1700 1704 1709 1715 1720 1728 1734 1736 1735 1733 1734 1736 1736 1735 1735 1737 1741 1742 1741 1742 1745 1748 1751 1756 1763 1770 1773 1774 1776 1773 1770 1768 1765 1761 1754 1745 1738 1731 1725 1716 1706 1696 1686 1678 1668 1662 1656 1650 1643 1636 1627 1617 1610 1604 1596 1586 1575 1568 1560 1553 1547 1540 1531 1525 1521 1524 1528 1531 1537 1548 1561 1577 1591 1605 1619 1627 1635 1641 1648 1654 1656 1657 1657 1655 1652 1645 1637 1627 1618 1610 1601 1592 1584 1576 1566 1553 1534 1517 1505 1492 1473 1457 1445 1432 1418 1403 1391 1378 1364 1351 1336 1324 1313 1303 1293 1285 
1535 1541 1539 1549 1564 1572 1576 1574 1571 1575 1587 1605 1607 1624 1641 1660 1663 1673 1684 1694 1693 1695 1697 1701 1705 1711 1720 1728 1732 1733 1734 1735 1736 1735 1735 1736 1740 1742 1745 1746 1748 1750 1755 1761 1765 1772 1778 1780 1781 1782 1781 1780 1778 1774 1768 1763 1756 1748 1743 1735 1726 1717 1709 1699 1691 1681 1673 1670 1665 1658 1652 1644 1637 1629 1623 1615 1606 1593 1583 1573 1566 1561 1555 1550 1545 1544 1547 1550 1554 1561 1575 1589 1600 1609 1618 1630 1644 1653 1659 1662 1662 1662 1661 1660 1658 1654 1649 1640 1630 1620 1610 1601 1593 1584 1573 1561 1549 1535 1520 1506 1490 1477 1465 1452 1437 1417 1399 1386 1373 1362 1351 1341 1331 1322 1313 1307 1301 
1517 1527 1531 1539 1544 1549 1553 1549 1553 1562 1562 1560 1568 1594 1610 1627 1644 1656 1669 1678 1686 1688 1692 1695 1697 1704 1712 1720 1726 1730 1733 1735 1735 1735 1736 1738 1741 1744 1747 1751 1755 1758 1763 1769 1773 1781 1785 1786 1786 1786 1786 1786 1787 1785 1779 1775 1768 1760 1752 1746 1738 1730 1721 1715 1709 1700 1694 1689 1683 1678 1670 1663 1656 1649 1641 1632 1623 1614 1600 1586 1577 1570 1563 1562 1567 1567 1567 1570 1575 1590 1607 1616 1622 1629 1641 1655 1667 1672 1674 1673 1672 1669 1667 1663 1658 1653 1649 1641 1631 1622 1614 1607 1596 1584 1573 1563 1549 1535 1520 1505 1492 1479 1467 1456 1443 1425 1402 1388 1378 1370 1362 1355 1348 1339 1329 1320 1311 
1498 1506 1518 1525 1521 1523 1519 1516 1518 1531 1534 1531 1543 1570 1592 1600 1611 1632 1653 1664 1673 1682 1687 1689 1693 1699 1707 1714 1718 1722 1727 1730 1733 1736 1740 1741 1742 1745 1749 1754 1760 1763 1768 1775 1784 1788 1794 1794 1793 1792 1791 1794 1796 1794 1791 1786 1781 1775 1769 1761 1753 1745 1735 1729 1726 1719 1715 1710 1701 1695 1687 1679 1673 1665 1654 1645 1639 1633 1621 1606 1596 1588 1590 1593 1594 1593 1593 1597 1606 1616 1626 1633 1639 1653 1671 1680 1683 1683 1683 1680 1677 1676 1671 1664 1658 1652 1646 1639 1631 1622 1617 1609 1599 1588 1575 1564 1553 1539 1527 1515 1501 1486 1472 1461 1446 1424 1407 1391 1378 1373 1370 1363 1357 1349 1341 1331 1322 
1474 1483 1488 1491 1484 1487 1485 1480 1487 1501 1507 1515 1527 1551 1566 1575 1585 1604 1629 1650 1662 1672 1678 1681 1685 1690 1698 1703 1708 1715 1721 1727 1732 1738 1742 1743 1744 1746 1751 1757 1762 1765 1772 1781 1787 1793 1798 1801 1801 1800 1799 1800 1801 1799 1797 1796 1794 1792 1788 1781 1771 1761 1753 1746 1744 1740 1733 1724 1717 1709 1704 1698 1690 1680 1665 1657 1652 1646 1637 1625 1617 1618 1619 1618 1615 1612 1616 1621 1635 1652 1662 1669 1677 1687 1693 1697 1693 1689 1687 1686 1683 1679 1676 1671 1663 1654 1648 1641 1633 1627 1621 1614 1601 1590 1579 1570 1557 1544 1533 1524 1512 1492 1477 1466 1453 1436 1421 1411 1401 1389 1383 1379 1369 1359 1350 1340 1331 
1456 1457 1460 1457 1452 1448 1446 1450 1460 1469 1479 1490 1504 1518 1540 1554 1566 1582 1609 1632 1649 1661 1668 1671 1674 1680 1683 1690 1697 1705 1714 1721 1729 1734 1738 1742 1744 1749 1753 1759 1764 1771 1778 1784 1791 1798 1803 1805 1806 1806 1807 1807 1809 1807 1805 1805 1807 1805 1804 1799 1792 1785 1779 1770 1763 1758 1754 1745 1734 1725 1720 1717 1710 1698 1686 1674 1669 1663 1651 1639 1634 1634 1635 1636 1633 1634 1645 1660 1666 1673 1684 1693 1698 1700 1703 1706 1704 1698 1695 1692 1688 1683 1679 1675 1672 1663 1654 1645 1637 1632 1627 1618 1607 1595 1585 1575 1562 1549 1538 1529 1519 1509 1492 1476 1465 1455 1444 1436 1427 1412 1399 1388 1378 1367 1356 1348 1340 
1430 1442 1437 1431 1432 1429 1427 1430 1438 1447 1459 1473 1482 1499 1521 1540 1556 1572 1595 1620 1631 1644 1656 1660 1666 1671 1675 1680 1687 1696 1705 1712 1719 1726 1732 1737 1744 1750 1754 1760 1766 1773 1781 1790 1798 1803 1807 1808 1811 1815 1816 1817 1815 1814 1812 1812 1815 1815 1813 1812 1810 1806 1798 1792 1782 1773 1768 1766 1759 1746 1739 1736 1727 1717 1707 1697 1685 1674 1665 1657 1652 1653 1660 1664 1672 1679 1690 1692 1690 1693 1699 1705 1708 1710 1713 1712 1708 1704 1701 1698 1693 1686 1681 1676 1672 1668 1660 1651 1642 1634 1628 1620 1610 1599 1590 1580 1569 1557 1547 1539 1529 1519 1507 1491 1471 1461 1457 1448 1438 1424 1411 1400 1389 1379 1370 1363 1353 
1405 1414 1414 1411 1415 1413 1411 1412 1417 1425 1436 1451 1467 1481 1503 1523 1543 1558 1579 1599 1614 1625 1641 1652 1656 1664 1669 1673 1679 1687 1696 1704 1710 1716 1722 1730 1739 1747 1754 1760 1767 1775 1786 1795 1802 1807 1810 1814 1821 1824 1826 1826 1823 1820 1818 1819 1822 1823 1822 1820 1818 1814 1809 1806 1798 1791 1787 1783 1778 1768 1756 1751 1739 1729 1722 1710 1696 1685 1681 1679 1679 1682 1686 1693 1701 1709 1712 1714 1715 1714 1717 1722 1723 1723 1720 1716 1710 1706 1704 1702 1696 1689 1684 1680 1675 1668 1662 1657 1645 1635 1629 1625 1615 1604 1596 1587 1576 1566 1557 1550 1544 1531 1518 1503 1487 1476 1465 1455 1445 1435 1424 1412 1402 1394 1385 1377 1367 
1379 1382 1373 1382 1388 1393 1394 1394 1396 1397 1406 1426 1443 1460 1482 1498 1518 1545 1565 1581 1600 1615 1630 1642 1652 1657 1660 1665 1670 1677 1686 1694 1701 1707 1713 1722 1732 1742 1750 1759 1765 1775 1787 1797 1802 1808 1814 1821 1829 1832 1832 1831 1830 1827 1827 1829 1831 1831 1829 1827 1824 1821 1817 1816 1811 1804 1800 1796 1790 1784 1776 1770 1760 1750 1740 1731 1715 1709 1706 1706 1708 1710 1713 1715 1720 1725 1730 1735 1739 1741 1740 1738 1736 1733 1726 1720 1714 1711 1709 1705 1698 1693 1688 1683 1678 1671 1662 1655 1649 1640 1633 1625 1617 1608 1600 1593 1585 1575 1566 1557 1550 1541 1530 1520 1506 1490 1478 1469 1459 1450 1438 1426 1417 1407 1397 1387 1379 
1346 1349 1347 1346 1355 1368 1374 1374 1373 1383 1392 1405 1425 1447 1462 1477 1508 1538 1563 1574 1586 1607 1629 1640 1647 1653 1655 1657 1663 1670 1679 1686 1692 1698 1705 1715 1726 1736 1745 1754 1762 1772 1784 1793 1802 1811 1816 1826 1834 1836 1837 1837 1836 1836 1834 1835 1836 1836 1834 1832 1831 1828 1826 1824 1822 1815 1811 1806 1803 1798 1790 1783 1775 1769 1762 1756 1746 1736 1734 1733 1734 1738 1742 1743 1743 1743 1745 1747 1750 1748 1746 1745 1741 1737 1732 1727 1722 1718 1715 1711 1706 1697 1690 1686 1681 1673 1664 1656 1648 1641 1633 1627 1618 1609 1602 1596 1588 1579 1570 1561 1551 1543 1535 1526 1516 1501 1487 1477 1466 1454 1445 1437 1429 1419 1408 1397 1389 
1319 1317 1322 1322 1326 1337 1349 1348 1353 1364 1379 1391 1403 1430 1450 1467 1495 1523 1539 1564 1592 1611 1628 1641 1646 1647 1649 1653 1659 1668 1672 1677 1681 1688 1696 1705 1717 1728 1739 1749 1758 1770 1782 1790 1804 1813 1819 1828 1836 1839 1840 1842 1844 1841 1840 1839 1839 1839 1838 1835 1834 1832 1830 1829 1828 1825 1819 1814 1810 1808 1801 1795 1788 1780 1778 1774 1771 1767 1762 1760 1759 1762 1766 1767 1764 1761 1757 1757 1756 1752 1747 1746 1745 1742 1739 1733 1726 1720 1715 1712 1707 1700 1693 1687 1682 1676 1668 1660 1651 1640 1632 1624 1617 1609 1599 1591 1585 1578 1570 1562 1553 1545 1537 1527 1517 1507 1498 1486 1472 1458 1444 1437 1432 1427 1418 1407 1397 
1296 1295 1297 1302 1308 1319 1326 1335 1342 1349 1364 1381 1394 1413 1435 1457 1481 1501 1521 1573 1601 1615 1626 1636 1641 1643 1645 1650 1657 1662 1668 1671 1674 1678 1685 1695 1708 1721 1733 1742 1753 1766 1778 1788 1801 1812 1819 1830 1839 1842 1844 1846 1846 1844 1842 1842 1842 1841 1840 1838 1836 1834 1832 1832 1833 1831 1827 1821 1816 1814 1810 1806 1802 1797 1792 1789 1787 1785 1783 1780 1777 1777 1777 1777 1776 1773 1769 1766 1763 1759 1751 1745 1744 1743 1738 1731 1725 1719 1715 1711 1707 1703 1694 1686 1680 1673 1666 1659 1651 1640 1628 1619 1610 1602 1595 1586 1578 1574 1567 1560 1554 1546 1537 1529 1522 1514 1505 1493 1479 1464 1451 1440 1436 1431 1424 1415 1402 
1280 1279 1280 1284 1292 1303 1306 1318 1334 1347 1363 1376 1389 1404 1421 1436 1454 1499 1540 1565 1586 1606 1622 1630 1635 1638 1643 1647 1651 1658 1663 1669 1671 1674 1681 1690 1702 1714 1724 1733 1746 1759 1771 1784 1797 1808 1818 1830 1840 1844 1846 1848 1849 1848 1847 1847 1847 1845 1843 1841 1839 1837 1836 1836 1836 1834 1830 1825 1821 1818 1816 1813 1811 1809 1807 1803 1799 1794 1790 1787 1784 1782 1782 1780 1779 1778 1774 1771 1768 1765 1757 1752 1749 1745 1740 1736 1731 1725 1719 1715 1710 1702 1692 1684 1677 1669 1658 1650 1641 1631 1622 1612 1603 1595 1586 1579 1573 1566 1560 1554 1547 1541 1534 1527 1523 1518 1509 1498 1485 1472 1459 1449 1442 1438 1430 1420 1409 
1268 1265 1268 1271 1284 1292 1300 1314 1330 1343 1357 1370 1383 1397 1412 1422 1445 1507 1544 1552 1571 1596 1611 1620 1626 1633 1641 1644 1649 1655 1662 1665 1670 1673 1678 1687 1697 1709 1718 1724 1739 1755 1766 1779 1790 1801 1815 1828 1837 1842 1845 1847 1849 1851 1852 1853 1852 1850 1848 1846 1843 1841 1840 1839 1838 1836 1832 1828 1824 1822 1820 1818 1817 1815 1813 1811 1806 1802 1798 1793 1790 1787 1785 1782 1780 1778 1775 1772 1770 1768 1764 1759 1754 1750 1745 1741 1738 1733 1728 1721 1714 1705 1695 1684 1673 1658 1647 1639 1631 1621 1613 1605 1594 1582 1576 1567 1560 1556 1551 1545 1538 1531 1524 1520 1516 1511 1503 1494 1485 1474 1462 1453 1446 1438 1430 1421 1412 
1257 1258 1260 1266 1275 1286 1298 1313 1323 1337 1349 1365 1378 1392 1409 1434 1465 1512 1540 1552 1565 1581 1599 1608 1620 1633 1638 1644 1647 1652 1657 1662 1665 1669 1673 1679 1690 1702 1711 1718 1730 1746 1757 1771 1783 1795 1807 1820 1830 1837 1841 1844 1848 1850 1853 1854 1854 1853 1852 1850 1848 1846 1845 1843 1840 1837 1836 1832 1829 1827 1824 1823 1821 1819 1817 1815 1811 1806 1803 1800 1796 1793 1787 1783 1780 1778 1775 1772 1770 1767 1762 1757 1753 1749 1744 1740 1737 1734 1729 1723 1717 1709 1697 1684 1668 1652 1640 1629 1620 1612 1604 1594 1584 1573 1561 1554 1549 1544 1538 1532 1524 1517 1513 1507 1500 1495 1488 1482 1473 1463 1454 1443 1436 1431 1427 1423 1416 
1251 1253 1257 1262 1271 1282 1296 1311 1322 1336 1350 1363 1378 1400 1420 1446 1484 1511 1531 1547 1559 1570 1587 1607 1618 1627 1634 1639 1645 1649 1651 1656 1661 1665 1669 1673 1681 1692 1703 1711 1722 1735 1748 1763 1777 1789 1801 1811 1822 1830 1835 1839 1844 1847 1850 1852 1852 1852 1852 1852 1851 1851 1850 1847 1844 1840 1839 1838 1835 1832 1829 1828 1826 1824 1823 1821 1817 1813 1810 1807 1802 1795 1789 1785 1781 1778 1775 1774 1770 1766 1762 1757 1754 1752 1745 1738 1734 1729 1726 1721 1711 1701 1689 1676 1663 1648 1633 1622 1613 1603 1592 1583 1571 1563 1557 1547 1538 1531 1524 1516 1510 1507 1501 1494 1484 1474 1467 1462 1459 1453 1442 1432 1426 1421 1418 1415 1411 
1247 1251 1255 1258 1271 1283 1295 1311 1321 1334 1351 1363 1379 1406 1428 1450 1470 1494 1521 1539 1553 1565 1584 1605 1618 1623 1628 1635 1641 1646 1648 1653 1657 1661 1666 1669 1675 1684 1694 1704 1715 1727 1739 1753 1770 1786 1795 1804 1814 1824 1830 1835 1840 1844 1846 1848 1850 1850 1850 1850 1851 1853 1852 1850 1847 1844 1843 1841 1839 1837 1834 1832 1832 1830 1828 1825 1820 1817 1814 1810 1804 1798 1792 1788 1785 1783 1779 1775 1772 1766 1761 1759 1756 1753 1747 1738 1729 1724 1719 1711 1700 1688 1679 1667 1654 1641 1626 1614 1607 1598 1586 1573 1564 1557 1550 1540 1530 1521 1512 1504 1499 1492 1487 1479 1469 1460 1453 1447 1440 1435 1429 1420 1414 1410 1408 1405 1402 
1245 1253 1258 1265 1275 1286 1298 1310 1323 1337 1353 1362 1389 1426 1435 1453 1470 1488 1512 1531 1553 1570 1588 1606 1615 1622 1627 1634 1637 1643 1646 1650 1653 1657 1661 1665 1668 1675 1684 1693 1706 1720 1731 1744 1761 1776 1788 1797 1807 1816 1825 1832 1837 1841 1844 1848 1851 1852 1851 1851 1852 1854 1855 1853 1851 1848 1845 1843 1841 1840 1838 1836 1835 1833 1832 1830 1827 1822 1817 1813 1809 1804 1798 1793 1790 1786 1783 1778 1772 1766 1760 1756 1752 1749 1744 1733 1723 1715 1709 1699 1687 1680 1670 1658 1644 1628 1616 1606 1599 1590 1579 1569 1559 1550 1540 1529 1521 1512 1504 1495 1484 1477 1471 1466 1460 1451 1442 1433 1425 1419 1414 1409 1403 1397 1395 1393 1390 
1244 1254 1266 1275 1285 1295 1308 1317 1329 1344 1359 1392 1425 1442 1450 1459 1473 1498 1522 1543 1564 1590 1601 1609 1616 1623 1626 1630 1633 1637 1643 1646 1650 1653 1656 1659 1662 1667 1676 1685 1694 1708 1723 1735 1748 1763 1775 1788 1799 1809 1821 1827 1832 1836 1842 1848 1853 1852 1852 1851 1853 1855 1856 1855 1853 1850 1847 1845 1843 1842 1841 1839 1837 1836 1837 1837 1836 1833 1828 1822 1817 1811 1806 1802 1797 1792 1785 1780 1775 1768 1761 1755 1748 1741 1732 1724 1717 1710 1701 1691 1683 1672 1660 1648 1634 1619 1607 1598 1589 1579 1570 1560 1550 1540 1530 1521 1513 1505 1495 1485 1476 1467 1460 1452 1445 1438 1429 1422 1415 1408 1403 1398 1389 1381 1377 1372 1368 
1246 1259 1273 1285 1296 1309 1323 1333 1348 1363 1386 1414 1431 1455 1467 1474 1481 1515 1545 1561 1575 1591 1609 1613 1619 1623 1627 1629 1629 1633 1638 1643 1648 1651 1653 1655 1657 1661 1669 1677 1686 1697 1712 1726 1739 1751 1764 1779 1792 1800 1810 1821 1826 1832 1839 1846 1849 1851 1851 1854 1857 1859 1861 1859 1857 1854 1852 1849 1848 1846 1844 1842 1841 1842 1844 1844 1843 1841 1838 1833 1828 1821 1816 1813 1808 1801 1793 1785 1778 1770 1763 1755 1745 1736 1727 1718 1711 1704 1696 1685 1676 1664 1653 1640 1627 1613 1599 1591 1582 1571 1561 1551 1541 1531 1522 1514 1505 1491 1482 1474 1466 1460 1450 1438 1431 1423 1416 1409 1397 1386 1381 1376 1368 1360 1356 1354 1352 
1256 1268 1282 1296 1309 1323 1335 1344 1359 1378 1400 1421 1438 1459 1474 1484 1515 1544 1556 1571 1584 1591 1603 1612 1616 1619 1624 1626 1627 1629 1635 1640 1644 1647 1650 1652 1653 1655 1662 1671 1679 1689 1702 1715 1727 1739 1753 1766 1779 1791 1801 1810 1817 1825 1835 1840 1846 1849 1853 1858 1862 1863 1863 1862 1862 1861 1859 1856 1854 1854 1853 1850 1849 1850 1850 1850 1849 1848 1845 1841 1836 1829 1822 1816 1813 1806 1797 1789 1780 1773 1765 1756 1747 1736 1725 1716 1705 1694 1682 1674 1665 1654 1645 1636 1624 1606 1594 1586 1575 1564 1554 1543 1531 1522 1513 1505 1496 1487 1476 1468 1460 1452 1441 1430 1421 1413 1403 1392 1379 1368 1358 1352 1347 1342 1339 1336 1333 
1267 1280 1293 1307 1322 1337 1352 1360 1370 1394 1415 1431 1449 1464 1481 1508 1532 1547 1560 1572 1584 1591 1598 1608 1612 1615 1620 1622 1624 1627 1632 1636 1639 1641 1643 1645 1647 1651 1657 1666 1675 1685 1695 1706 1717 1727 1739 1753 1764 1777 1791 1801 1808 1817 1829 1837 1844 1850 1856 1862 1866 1867 1866 1865 1867 1869 1869 1866 1866 1866 1864 1863 1859 1855 1854 1854 1853 1853 1849 1846 1843 1835 1829 1822 1816 1809 1802 1794 1787 1778 1769 1757 1743 1733 1724 1713 1700 1688 1677 1669 1660 1652 1643 1630 1618 1607 1594 1579 1570 1561 1548 1534 1524 1514 1505 1495 1487 1480 1471 1460 1450 1441 1430 1419 1411 1404 1393 1378 1365 1351 1340 1330 1326 1325 1319 1314 1312 
1280 1296 1307 1320 1334 1351 1366 1376 1390 1408 1427 1442 1458 1476 1494 1513 1534 1552 1563 1572 1584 1589 1597 1605 1611 1617 1619 1621 1622 1626 1630 1632 1635 1636 1638 1640 1641 1646 1652 1660 1668 1677 1688 1699 1710 1720 1732 1744 1754 1762 1772 1788 1797 1806 1819 1832 1842 1850 1856 1865 1870 1870 1869 1869 1871 1875 1876 1877 1876 1875 1874 1871 1866 1862 1859 1858 1858 1855 1853 1849 1845 1840 1835 1828 1819 1811 1804 1797 1791 1786 1775 1762 1748 1734 1720 1708 1700 1689 1676 1666 1659 1651 1638 1626 1615 1603 1588 1575 1566 1555 1544 1531 1519 1509 1498 1488 1479 1468 1456 1444 1434 1424 1415 1406 1397 1386 1375 1365 1352 1335 1315 1307 1305 1302 1299 1290 1282 
1301 1316 1328 1341 1353 1364 1377 1388 1405 1425 1443 1460 1477 1495 1507 1522 1540 1556 1566 1575 1589 1594 1600 1606 1612 1618 1621 1620 1620 1624 1628 1630 1631 1633 1636 1640 1643 1645 1649 1656 1663 1670 1680 1692 1703 1713 1723 1736 1745 1752 1762 1773 1786 1795 1808 1822 1837 1848 1857 1865 1870 1871 1872 1873 1877 1880 1882 1883 1884 1883 1882 1879 1876 1872 1867 1864 1863 1862 1858 1852 1847 1846 1842 1837 1829 1821 1813 1804 1793 1782 1775 1765 1752 1737 1721 1711 1704 1694 1681 1668 1654 1644 1634 1622 1610 1598 1583 1571 1561 1552 1540 1528 1515 1505 1493 1481 1472 1462 1449 1436 1424 1415 1406 1393 1379 1365 1353 1343 1332 1315 1302 1293 1288 1282 1269 1259 1259 
1314 1327 1344 1357 1368 1377 1389 1399 1418 1439 1456 1472 1490 1507 1521 1533 1545 1560 1569 1579 1589 1596 1601 1606 1611 1618 1618 1618 1619 1621 1625 1628 1628 1629 1633 1639 1642 1644 1649 1655 1661 1665 1674 1685 1695 1705 1714 1724 1737 1749 1758 1770 1781 1792 1805 1822 1832 1847 1857 1865 1871 1873 1876 1878 1883 1888 1891 1892 1891 1891 1889 1885 1882 1878 1874 1870 1867 1865 1862 1857 1852 1848 1846 1842 1838 1832 1827 1812 1797 1783 1771 1762 1753 1741 1729 1719 1709 1702 1690 1673 1658 1649 1634 1619 1605 1593 1580 1567 1556 1548 1537 1526 1514 1501 1490 1479 1467 1455 1444 1433 1421 1408 1395 1381 1365 1350 1338 1328 1315 1302 1292 1284 1274 1263 1251 1240 1238 
1327 1341 1360 1372 1385 1395 1402 1418 1436 1454 1466 1477 1490 1511 1524 1534 1545 1558 1570 1580 1588 1594 1599 1605 1610 1614 1617 1618 1617 1619 1621 1624 1626 1629 1631 1635 1640 1643 1648 1653 1659 1665 1673 1683 1693 1700 1709 1718 1729 1745 1757 1767 1778 1791 1810 1823 1834 1846 1856 1863 1870 1877 1880 1883 1888 1894 1900 1900 1901 1901 1898 1894 1887 1882 1877 1873 1869 1867 1864 1860 1854 1849 1845 1842 1838 1832 1826 1814 1800 1786 1775 1765 1756 1747 1736 1724 1711 1700 1686 1672 1660 1649 1635 1620 1604 1588 1573 1559 1549 1541 1534 1526 1515 1501 1487 1476 1466 1452 1439 1428 1416 1401 1388 1377 1362 1347 1334 1321 1307 1293 1279 1267 1255 1245 1236 1228 1218 
1345 1356 1369 1387 1399 1410 1423 1437 1452 1469 1480 1488 1499 1511 1522 1532 1543 1558 1571 1579 1586 1593 1599 1603 1609 1612 1614 1615 1615 1616 1617 1620 1625 1627 1630 1632 1635 1640 1645 1652 1657 1663 1670 1679 1687 1695 1706 1714 1725 1741 1754 1762 1773 1788 1804 1818 1831 1846 1854 1863 1873 1880 1883 1887 1891 1899 1904 1908 1910 1910 1907 1901 1895 1889 1881 1876 1872 1868 1864 1861 1856 1852 1848 1843 1837 1831 1826 1821 1805 1791 1779 1767 1758 1748 1734 1720 1709 1700 1685 1672 1660 1648 1633 1620 1602 1585 1569 1558 1549 1541 1533 1523 1511 1497 1483 1473 1463 1454 1442 1429 1416 1402 1384 1366 1353 1342 1328 1313 1301 1287 1273 1259 1244 1235 1229 1215 1202 
1356 1366 1379 1397 1408 1423 1434 1450 1462 1476 1485 1492 1501 1513 1526 1536 1545 1559 1571 1579 1586 1592 1598 1602 1605 1608 1609 1611 1612 1613 1615 1617 1621 1625 1627 1628 1631 1635 1640 1645 1653 1661 1667 1674 1680 1689 1701 1713 1721 1731 1745 1756 1770 1786 1800 1813 1827 1844 1854 1861 1876 1885 1888 1891 1896 1903 1908 1912 1914 1913 1909 1905 1899 1892 1885 1879 1875 1869 1864 1858 1853 1850 1847 1843 1836 1830 1824 1813 1802 1790 1778 1767 1755 1742 1729 1719 1711 1701 1688 1673 1661 1643 1628 1614 1600 1586 1572 1560 1552 1545 1535 1525 1513 1501 1489 1477 1466 1455 1443 1431 1421 1406 1388 1371 1357 1344 1327 1307 1292 1281 1267 1253 1246 1239 1229 1215 1199 
1362 1379 1390 1401 1412 1424 1437 1452 1466 1476 1486 1494 1503 1514 1527 1538 1548 1560 1570 1578 1583 1589 1595 1599 1601 1602 1603 1605 1608 1610 1612 1615 1618 1621 1624 1627 1629 1633 1636 1640 1647 1653 1661 1667 1674 1681 1693 1706 1717 1725 1735 1752 1768 1785 1800 1814 1827 1840 1849 1861 1874 1885 1890 1893 1899 1905 1908 1910 1910 1910 1910 1906 1901 1893 1885 1878 1871 1864 1858 1853 1849 1844 1842 1838 1833 1824 1814 1804 1793 1784 1775 1762 1747 1736 1725 1717 1709 1697 1682 1669 1656 1641 1626 1613 1601 1589 1576 1565 1554 1543 1535 1527 1515 1504 1492 1482 1470 1456 1445 1436 1424 1410 1394 1377 1361 1343 1327 1312 1297 1282 1268 1257 1249 1239 1228 1211 1192 
1368 1385 1397 1406 1415 1425 1436 1451 1462 1474 1482 1493 1502 1512 1524 1536 1544 1554 1565 1574 1579 1584 1589 1595 1596 1596 1598 1600 1603 1606 1607 1610 1614 1617 1619 1621 1625 1629 1633 1638 1642 1649 1657 1664 1669 1675 1691 1702 1712 1718 1730 1748 1767 1786 1798 1810 1824 1836 1846 1858 1872 1882 1888 1891 1897 1903 1905 1906 1906 1907 1907 1905 1901 1893 1884 1876 1867 1860 1854 1849 1842 1838 1833 1829 1824 1817 1806 1796 1788 1776 1765 1754 1741 1731 1723 1713 1703 1691 1675 1659 1645 1634 1621 1607 1596 1589 1580 1570 1556 1544 1536 1525 1512 1501 1490 1479 1466 1451 1440 1432 1422 1411 1395 1378 1362 1346 1328 1314 1304 1292 1277 1261 1247 1237 1225 1211 1196 
1374 1384 1397 1409 1418 1428 1440 1451 1461 1470 1480 1491 1500 1508 1518 1528 1537 1545 1553 1560 1568 1573 1578 1581 1586 1588 1591 1594 1597 1601 1603 1604 1607 1612 1616 1618 1622 1627 1632 1637 1642 1648 1654 1661 1666 1671 1684 1701 1708 1715 1727 1746 1765 1776 1791 1803 1817 1831 1843 1856 1866 1876 1882 1887 1892 1897 1900 1902 1903 1904 1905 1901 1896 1888 1879 1873 1864 1855 1849 1843 1836 1829 1824 1821 1814 1806 1797 1790 1781 1771 1760 1749 1736 1725 1715 1705 1692 1679 1667 1653 1643 1632 1618 1603 1591 1583 1575 1567 1558 1546 1534 1526 1515 1500 1488 1478 1466 1452 1438 1426 1415 1403 1392 1377 1362 1346 1330 1315 1301 1287 1273 1260 1249 1236 1224 1213 1199 
1378 1387 1396 1410 1419 1429 1440 1451 1458 1465 1473 1484 1494 1502 1510 1517 1523 1530 1537 1545 1552 1560 1565 1568 1573 1577 1582 1586 1590 1594 1597 1601 1603 1608 1613 1617 1620 1625 1630 1637 1642 1647 1652 1657 1661 1670 1681 1694 1703 1714 1725 1745 1763 1774 1783 1797 1814 1829 1843 1853 1859 1867 1876 1881 1888 1892 1893 1896 1898 1900 1898 1894 1888 1882 1876 1868 1859 1850 1842 1838 1830 1821 1815 1808 1802 1793 1785 1777 1770 1762 1753 1743 1730 1718 1706 1694 1682 1672 1661 1650 1638 1626 1614 1601 1590 1579 1570 1561 1552 1542 1532 1522 1511 1499 1489 1479 1466 1454 1442 1429 1413 1399 1388 1377 1364 1347 1329 1310 1293 1277 1266 1256 1243 1231 1221 1211 1195 
1376 1385 1395 1405 1414 1422 1432 1441 1450 1457 1464 1471 1479 1488 1496 1504 1511 1517 1524 1532 1537 1544 1550 1557 1561 1566 1571 1576 1580 1585 1590 1595 1599 1603 1609 1613 1616 1619 1625 1631 1637 1642 1647 1651 1657 1667 1680 1688 1697 1708 1726 1744 1760 1772 1780 1793 1811 1829 1840 1846 1852 1862 1870 1877 1882 1884 1885 1887 1890 1889 1887 1885 1880 1876 1870 1863 1854 1845 1837 1831 1823 1814 1805 1798 1793 1785 1777 1769 1761 1753 1746 1737 1725 1711 1698 1687 1675 1665 1655 1644 1632 1620 1608 1596 1584 1573 1563 1556 1550 1541 1529 1518 1508 1499 1487 1475 1463 1452 1442 1432 1415 1397 1383 1370 1356 1342 1323 1302 1286 1272 1258 1245 1233 1222 1214 1205 1191 
1369 1379 1390 1397 1404 1411 1419 1428 1438 1445 1452 1458 1464 1471 1479 1487 1497 1503 1510 1517 1523 1530 1535 1541 1549 1554 1560 1565 1572 1578 1582 1586 1591 1597 1604 1610 1614 1616 1620 1625 1630 1635 1640 1646 1651 1662 1672 1682 1688 1699 1715 1735 1754 1767 1777 1788 1807 1823 1832 1839 1845 1854 1864 1869 1874 1874 1877 1880 1881 1880 1877 1873 1871 1867 1862 1856 1849 1839 1832 1827 1820 1812 1801 1793 1787 1781 1772 1763 1753 1744 1737 1728 1716 1704 1694 1683 1671 1661 1649 1637 1625 1615 1604 1591 1579 1569 1559 1553 1549 1538 1525 1513 1502 1493 1483 1474 1463 1451 1439 1427 1413 1397 1380 1367 1353 1334 1313 1298 1284 1267 1251 1236 1224 1215 1206 1197 1183 
1365 1371 1380 1388 1393 1400 1407 1414 1422 1430 1437 1444 1451 1458 1464 1471 1479 1487 1494 1503 1510 1517 1524 1530 1538 1546 1550 1555 1564 1573 1577 1581 1587 1593 1598 1605 1611 1613 1617 1622 1627 1631 1636 1642 1650 1657 1666 1674 1682 1693 1704 1719 1736 1760 1773 1787 1801 1814 1826 1832 1838 1844 1850 1857 1860 1861 1867 1871 1870 1869 1867 1866 1863 1858 1854 1848 1841 1835 1829 1822 1815 1806 1795 1785 1779 1772 1764 1755 1744 1736 1730 1721 1710 1700 1690 1679 1668 1657 1645 1633 1623 1614 1606 1594 1579 1568 1559 1551 1545 1535 1522 1509 1498 1489 1481 1472 1462 1451 1438 1423 1407 1393 1380 1367 1352 1335 1316 1298 1283 1268 1249 1229 1215 1204 1194 1183 1169 
1357 1362 1368 1374 1381 1388 1395 1401 1407 1415 1424 1432 1438 1443 1450 1457 1466 1475 1484 1492 1499 1505 1511 1518 1527 1536 1543 1548 1555 1566 1574 1578 1585 1590 1595 1598 1603 1608 1612 1617 1623 1628 1632 1638 1646 1653 1661 1669 1676 1687 1702 1713 1728 1753 1771 1780 1792 1806 1815 1822 1827 1833 1838 1843 1846 1851 1854 1857 1857 1857 1859 1858 1853 1847 1845 1840 1834 1828 1822 1815 1806 1798 1787 1777 1769 1763 1755 1748 1737 1729 1722 1712 1703 1694 1685 1674 1663 1653 1643 1633 1623 1615 1603 1589 1578 1568 1560 1553 1543 1533 1519 1505 1496 1487 1479 1471 1460 1448 1436 1421 1406 1391 1374 1358 1346 1333 1315 1297 1281 1262 1241 1226 1212 1197 1183 1174 1164 
1345 1351 1355 1360 1368 1376 1381 1387 1393 1399 1408 1419 1424 1429 1436 1446 1454 1464 1474 1483 1489 1495 1502 1508 1516 1525 1535 1541 1549 1559 1568 1573 1580 1587 1591 1594 1598 1604 1609 1614 1621 1626 1628 1632 1639 1645 1657 1664 1671 1682 1696 1709 1725 1742 1759 1774 1783 1793 1804 1811 1816 1821 1826 1830 1833 1836 1839 1841 1843 1845 1847 1845 1842 1839 1836 1832 1828 1822 1816 1808 1799 1791 1781 1771 1765 1758 1751 1741 1731 1723 1714 1705 1697 1688 1678 1669 1660 1653 1643 1633 1622 1610 1598 1586 1575 1565 1557 1548 1540 1530 1518 1507 1495 1485 1475 1466 1456 1446 1434 1422 1406 1388 1373 1358 1342 1329 1314 1296 1278 1258 1240 1226 1211 1192 1180 1173 1166 
1334 1339 1345 1349 1356 1364 1370 1376 1380 1385 1391 1401 1409 1417 1425 1433 1441 1449 1458 1470 1480 1488 1495 1501 1509 1518 1528 1537 1544 1553 1563 1570 1575 1581 1586 1590 1596 1601 1607 1612 1618 1622 1624 1626 1631 1642 1650 1657 1663 1673 1687 1699 1713 1728 1745 1762 1772 1782 1793 1801 1808 1810 1813 1816 1820 1822 1822 1825 1830 1831 1829 1829 1830 1827 1824 1823 1820 1815 1809 1802 1793 1782 1775 1767 1760 1753 1743 1733 1726 1717 1709 1701 1691 1683 1675 1667 1659 1651 1642 1632 1620 1608 1598 1586 1575 1564 1553 1543 1534 1526 1517 1508 1496 1487 1478 1467 1456 1444 1432 1418 1404 1392 1378 1360 1342 1328 1314 1299 1280 1260 1246 1234 1219 1201 1188 1177 1169 
1322 1328 1334 1339 1345 1350 1357 1363 1368 1373 1379 1387 1396 1406 1414 1421 1429 1438 1447 1458 1470 1481 1489 1496 1504 1514 1524 1534 1542 1550 1559 1567 1573 1578 1582 1586 1592 1597 1601 1606 1612 1615 1619 1622 1629 1638 1644 1647 1654 1669 1681 1693 1706 1719 1733 1746 1758 1767 1775 1785 1792 1797 1799 1801 1804 1807 1808 1811 1813 1815 1816 1816 1815 1812 1811 1811 1808 1802 1796 1790 1781 1775 1768 1761 1752 1743 1735 1729 1721 1713 1705 1695 1688 1682 1674 1666 1658 1649 1639 1630 1623 1613 1597 1582 1572 1563 1554 1543 1532 1523 1514 1506 1499 1491 1483 1472 1459 1446 1434 1425 1411 1395 1380 1365 1345 1325 1311 1299 1286 1271 1255 1241 1225 1211 1199 1190 1183 
1309 1316 1321 1327 1333 1339 1344 1349 1355 1360 1365 1374 1383 1393 1403 1412 1421 1431 1441 1452 1462 1471 1480 1489 1499 1509 1521 1531 1541 1550 1559 1565 1572 1577 1581 1584 1588 1592 1597 1602 1607 1610 1612 1616 1622 1632 1636 1638 1646 1661 1674 1684 1699 1712 1721 1733 1742 1749 1758 1768 1777 1782 1785 1787 1788 1789 1792 1795 1797 1799 1802 1805 1802 1800 1799 1799 1795 1789 1786 1781 1775 1770 1763 1754 1744 1736 1729 1722 1714 1708 1700 1693 1686 1681 1674 1665 1659 1649 1637 1627 1620 1611 1598 1583 1571 1563 1556 1547 1534 1520 1512 1506 1497 1489 1484 1478 1463 1446 1438 1429 1415 1398 1382 1366 1344 1326 1314 1303 1291 1277 1262 1246 1230 1219 1212 1207 1201 
1295 1304 1309 1314 1318 1327 1332 1338 1344 1353 1358 1367 1375 1383 1394 1408 1418 1426 1436 1447 1457 1464 1473 1484 1495 1502 1515 1532 1543 1554 1558 1565 1569 1575 1579 1583 1586 1590 1595 1598 1602 1604 1606 1608 1614 1623 1630 1633 1642 1652 1663 1671 1684 1700 1709 1715 1727 1735 1745 1757 1764 1769 1772 1773 1774 1775 1775 1779 1782 1785 1787 1789 1789 1789 1790 1787 1784 1781 1777 1771 1768 1763 1755 1745 1737 1729 1722 1714 1707 1700 1696 1690 1684 1678 1671 1665 1659 1651 1638 1626 1618 1612 1602 1589 1575 1566 1557 1546 1535 1526 1516 1507 1497 1489 1482 1475 1464 1450 1438 1429 1418 1401 1386 1370 1354 1337 1324 1314 1301 1283 1266 1254 1242 1230 1223 1218 1213 
1283 1291 1297 1301 1307 1313 1323 1329 1338 1346 1356 1366 1375 1383 1391 1401 1413 1422 1432 1445 1454 1461 1470 1481 1492 1502 1514 1529 1542 1549 1556 1561 1566 1569 1576 1580 1584 1588 1592 1595 1598 1601 1603 1604 1609 1616 1622 1627 1635 1646 1656 1664 1677 1688 1697 1707 1715 1723 1730 1739 1748 1753 1759 1759 1759 1760 1764 1765 1770 1774 1777 1777 1777 1778 1779 1776 1773 1772 1768 1764 1760 1753 1745 1738 1731 1722 1715 1707 1701 1696 1691 1685 1680 1674 1667 1661 1654 1646 1636 1627 1620 1612 1602 1590 1578 1568 1558 1546 1534 1526 1521 1512 1501 1491 1482 1472 1462 1450 1439 1428 1416 1402 1388 1375 1361 1348 1335 1325 1311 1295 1280 1266 1257 1248 1241 1235 1230 
1272 1278 1285 1295 1302 1307 1318 1326 1334 1345 1357 1370 1378 1382 1389 1399 1410 1420 1431 1441 1451 1459 1467 1479 1488 1500 1513 1527 1540 1548 1552 1559 1563 1567 1572 1579 1583 1585 1588 1591 1594 1598 1600 1602 1604 1608 1612 1617 1625 1636 1646 1660 1670 1678 1685 1697 1708 1712 1717 1724 1731 1736 1740 1741 1743 1746 1749 1751 1755 1761 1763 1766 1767 1768 1768 1766 1763 1760 1757 1755 1751 1743 1736 1730 1723 1717 1710 1702 1697 1692 1686 1680 1674 1669 1662 1653 1646 1640 1632 1624 1616 1608 1600 1592 1581 1567 1557 1546 1536 1528 1522 1516 1505 1494 1484 1474 1464 1456 1445 1433 1418 1407 1396 1382 1364 1352 1343 1331 1319 1308 1296 1285 1276 1268 1262 1253 1246 
1264 1271 1279 1290 1301 1307 1314 1325 1333 1347 1360 1371 1377 1382 1391 1401 1411 1422 1432 1441 1450 1456 1466 1479 1490 1500 1512 1527 1543 1550 1555 1560 1566 1570 1572 1575 1577 1580 1583 1587 1590 1593 1595 1596 1598 1600 1603 1607 1612 1622 1636 1650 1661 1667 1673 1682 1693 1701 1706 1713 1717 1719 1721 1725 1728 1733 1736 1737 1740 1743 1746 1751 1755 1757 1757 1753 1752 1748 1746 1745 1741 1733 1727 1722 1717 1711 1703 1697 1692 1686 1680 1675 1672 1667 1659 1651 1644 1638 1629 1620 1613 1606 1598 1589 1579 1570 1561 1551 1541 1531 1522 1509 1499 1492 1483 1472 1463 1456 1445 1433 1421 1412 1401 1386 1373 1360 1349 1338 1329 1318 1309 1299 1290 1281 1271 1263 1255 
1260 1267 1278 1290 1301 1310 1319 1328 1337 1351 1364 1371 1377 1385 1395 1405 1415 1423 1433 1441 1448 1457 1469 1481 1491 1503 1511 1529 1540 1546 1555 1559 1566 1570 1572 1572 1576 1578 1581 1583 1585 1587 1590 1592 1593 1594 1596 1599 1604 1611 1626 1641 1649 1655 1660 1666 1674 1683 1693 1700 1705 1708 1710 1712 1715 1721 1726 1727 1728 1732 1736 1741 1746 1746 1746 1745 1743 1739 1737 1736 1733 1727 1719 1714 1711 1705 1699 1694 1689 1682 1676 1672 1667 1663 1658 1650 1644 1635 1627 1620 1613 1607 1600 1589 1580 1571 1561 1549 1540 1532 1524 1514 1502 1490 1480 1470 1461 1453 1444 1433 1423 1413 1401 1387 1374 1363 1352 1343 1335 1327 1320 1311 1303 1295 1283 1270 1261 
1260 1269 1282 1293 1305 1313 1328 1337 1345 1355 1366 1372 1378 1387 1400 1410 1418 1426 1433 1440 1450 1462 1474 1485 1493 1501 1507 1521 1531 1541 1553 1558 1563 1570 1569 1570 1573 1576 1578 1579 1580 1583 1586 1589 1589 1589 1591 1593 1597 1603 1614 1630 1636 1641 1647 1652 1659 1665 1673 1682 1690 1695 1700 1702 1705 1709 1712 1713 1717 1722 1727 1730 1734 1736 1737 1736 1735 1733 1731 1730 1727 1723 1716 1712 1708 1702 1697 1693 1687 1679 1672 1666 1662 1658 1653 1649 1643 1636 1628 1620 1612 1607 1600 1590 1580 1570 1561 1551 1542 1536 1529 1518 1504 1491 1480 1472 1463 1453 1443 1433 1423 1414 1403 1389 1376 1366 1355 1345 1339 1333 1327 1319 1310 1301 1290 1279 1270 
1264 1275 1289 1303 1311 1326 1341 1349 1353 1362 1369 1374 1381 1394 1405 1413 1419 1424 1436 1447 1461 1471 1479 1487 1497 1505 1514 1526 1531 1541 1552 1555 1562 1564 1563 1561 1565 1572 1575 1577 1579 1580 1582 1582 1582 1583 1587 1589 1594 1599 1604 1614 1622 1627 1633 1641 1647 1653 1658 1663 1671 1681 1687 1691 1695 1699 1702 1704 1707 1712 1715 1715 1718 1724 1728 1728 1727 1726 1725 1725 1722 1717 1711 1708 1705 1700 1693 1690 1686 1680 1671 1663 1658 1654 1649 1645 1641 1636 1629 1620 1612 1607 1600 1590 1583 1575 1565 1555 1548 1542 1532 1521 1507 1495 1485 1474 1464 1453 1441 1431 1423 1414 1403 1391 1378 1367 1357 1349 1343 1338 1332 1323 1314 1304 1296 1288 1279 
1264 1280 1297 1308 1318 1334 1347 1353 1360 1368 1373 1381 1393 1400 1406 1413 1417 1426 1442 1457 1467 1477 1485 1491 1497 1506 1523 1538 1540 1546 1548 1551 1552 1553 1549 1551 1556 1563 1568 1571 1574 1574 1573 1574 1574 1575 1581 1586 1590 1592 1597 1603 1610 1616 1622 1630 1637 1643 1647 1652 1660 1668 1675 1679 1683 1689 1693 1698 1701 1701 1702 1704 1707 1711 1716 1717 1718 1718 1718 1718 1716 1712 1707 1704 1701 1695 1690 1685 1681 1676 1669 1662 1657 1651 1645 1641 1638 1634 1628 1621 1614 1608 1601 1592 1584 1577 1570 1562 1551 1541 1533 1523 1512 1501 1488 1477 1465 1452 1441 1431 1422 1411 1401 1390 1377 1366 1358 1351 1346 1340 1333 1325 1317 1309 1302 1294 1285 
1257 1278 1298 1308 1318 1331 1346 1355 1364 1371 1383 1390 1400 1404 1410 1416 1423 1431 1449 1461 1468 1479 1489 1491 1491 1496 1521 1540 1540 1543 1544 1544 1542 1537 1535 1539 1544 1547 1550 1556 1561 1564 1563 1560 1561 1568 1574 1580 1583 1585 1588 1591 1599 1606 1613 1620 1626 1631 1635 1642 1649 1656 1662 1669 1672 1677 1684 1689 1691 1692 1694 1697 1699 1701 1702 1706 1708 1710 1710 1709 1708 1706 1702 1699 1696 1692 1688 1683 1676 1670 1666 1662 1658 1652 1646 1639 1635 1631 1626 1619 1613 1606 1598 1592 1587 1580 1573 1566 1556 1545 1535 1525 1514 1502 1490 1477 1464 1452 1440 1429 1420 1410 1399 1387 1377 1368 1360 1353 1346 1340 1333 1325 1317 1310 1305 1301 1294 
1245 1273 1297 1308 1317 1338 1352 1364 1370 1383 1390 1396 1408 1413 1419 1426 1433 1441 1446 1454 1471 1487 1498 1497 1498 1500 1505 1521 1524 1528 1533 1533 1529 1521 1521 1526 1532 1531 1529 1535 1543 1549 1544 1537 1538 1547 1561 1568 1573 1576 1579 1582 1588 1596 1602 1608 1614 1618 1624 1629 1637 1643 1652 1659 1664 1668 1671 1677 1679 1682 1686 1690 1692 1694 1695 1697 1701 1703 1703 1701 1700 1698 1696 1694 1692 1688 1685 1681 1675 1671 1666 1661 1656 1650 1644 1638 1633 1629 1624 1617 1609 1602 1596 1590 1586 1580 1574 1568 1560 1550 1540 1530 1519 1506 1494 1479 1464 1452 1442 1433 1423 1411 1401 1390 1379 1372 1364 1358 1352 1345 1338 1330 1322 1316 1312 1309 1305 
1238 1265 1290 1302 1311 1328 1346 1357 1370 1379 1390 1401 1418 1422 1430 1436 1437 1438 1441 1451 1467 1486 1496 1496 1496 1495 1504 1510 1508 1511 1513 1513 1509 1504 1501 1506 1508 1511 1515 1513 1520 1526 1524 1520 1521 1528 1540 1550 1556 1561 1570 1576 1581 1589 1591 1595 1600 1605 1608 1615 1622 1630 1638 1648 1655 1661 1665 1667 1671 1674 1676 1681 1685 1689 1691 1694 1695 1697 1695 1693 1692 1691 1691 1689 1687 1683 1681 1677 1674 1669 1665 1660 1655 1651 1645 1640 1635 1629 1622 1616 1608 1602 1597 1593 1587 1581 1575 1569 1561 1552 1542 1530 1518 1505 1492 1479 1468 1458 1451 1441 1430 1417 1404 1394 1385 1378 1372 1366 1359 1352 1344 1335 1327 1322 1320 1318 1315 
1228 1255 1279 1289 1295 1307 1323 1337 1352 1365 1377 1395 1412 1421 1432 1437 1437 1436 1440 1447 1460 1468 1476 1479 1479 1484 1492 1494 1493 1495 1496 1496 1489 1485 1483 1483 1484 1485 1485 1490 1495 1501 1504 1505 1505 1507 1517 1531 1538 1543 1555 1563 1569 1575 1579 1580 1585 1589 1596 1601 1609 1616 1626 1634 1644 1652 1657 1661 1664 1667 1669 1674 1678 1683 1686 1688 1689 1691 1690 1690 1688 1688 1687 1686 1683 1681 1678 1674 1670 1666 1663 1658 1654 1650 1645 1640 1635 1629 1621 1616 1609 1604 1600 1594 1588 1582 1576 1571 1565 1556 1543 1528 1513 1502 1492 1482 1473 1465 1455 1444 1432 1419 1408 1399 1391 1383 1376 1371 1363 1353 1345 1338 1332 1328 1327 1326 1326 
1221 1238 1258 1272 1280 1291 1308 1321 1337 1354 1365 1372 1392 1406 1419 1428 1431 1435 1437 1443 1445 1448 1457 1460 1460 1462 1468 1468 1473 1473 1472 1472 1468 1465 1463 1464 1461 1460 1458 1461 1472 1482 1484 1485 1483 1481 1491 1510 1524 1531 1535 1543 1551 1561 1566 1570 1572 1578 1586 1595 1601 1610 1619 1628 1635 1642 1649 1654 1658 1660 1664 1669 1675 1679 1682 1683 1685 1686 1686 1686 1687 1687 1685 1684 1682 1679 1676 1672 1668 1666 1662 1658 1654 1649 1644 1639 1635 1629 1623 1617 1611 1605 1600 1594 1589 1584 1577 1570 1563 1554 1544 1530 1515 1505 1496 1486 1477 1468 1460 1450 1438 1423 1412 1405 1397 1389 1381 1374 1367 1360 1351 1342 1337 1334 1334 1334 1335 
1210 1223 1239 1254 1268 1283 1299 1312 1328 1345 1355 1366 1375 1388 1399 1415 1421 1427 1428 1431 1425 1427 1435 1440 1440 1441 1444 1448 1447 1445 1443 1442 1440 1438 1440 1440 1440 1441 1439 1442 1449 1453 1459 1459 1459 1455 1456 1478 1506 1514 1522 1530 1539 1546 1557 1562 1567 1571 1576 1589 1600 1607 1619 1625 1630 1636 1643 1649 1652 1655 1660 1666 1670 1674 1678 1680 1681 1682 1682 1682 1684 1684 1684 1682 1680 1677 1674 1672 1669 1666 1662 1658 1653 1651 1646 1642 1637 1631 1625 1619 1610 1606 1601 1595 1590 1583 1577 1568 1560 1554 1546 1534 1520 1508 1499 1488 1478 1468 1461 1455 1442 1431 1420 1410 1402 1395 1389 1382 1374 1367 1360 1354 1348 1346 1345 1347 1348 
1201 1211 1224 1240 1252 1267 1284 1298 1313 1328 1342 1353 1366 1370 1375 1389 1407 1408 1413 1409 1397 1401 1405 1410 1417 1415 1418 1423 1424 1419 1414 1411 1410 1410 1409 1411 1405 1416 1424 1421 1426 1423 1426 1432 1429 1434 1436 1444 1466 1501 1515 1522 1529 1535 1546 1556 1562 1565 1572 1579 1594 1601 1610 1617 1624 1631 1637 1643 1647 1651 1656 1660 1665 1669 1672 1674 1677 1679 1680 1681 1681 1682 1681 1680 1678 1676 1675 1673 1670 1667 1664 1660 1656 1652 1649 1644 1639 1632 1626 1618 1611 1605 1600 1595 1590 1586 1578 1570 1562 1555 1546 1533 1521 1510 1502 1493 1482 1472 1462 1454 1448 1440 1430 1420 1408 1400 1392 1385 1378 1371 1366 1362 1359 1355 1355 1358 1359 
1193 1204 1213 1223 1232 1246 1262 1278 1291 1303 1321 1336 1345 1350 1356 1362 1370 1379 1382 1382 1373 1376 1376 1377 1382 1390 1394 1398 1398 1395 1390 1387 1387 1387 1387 1388 1383 1384 1394 1398 1395 1398 1406 1410 1414 1418 1424 1430 1448 1478 1504 1513 1519 1523 1535 1552 1559 1564 1570 1582 1594 1597 1605 1615 1621 1627 1633 1639 1644 1649 1652 1657 1662 1666 1669 1671 1674 1676 1677 1677 1678 1679 1680 1680 1678 1676 1676 1674 1672 1668 1665 1662 1657 1652 1648 1644 1639 1633 1628 1621 1616 1611 1603 1597 1593 1587 1581 1571 1561 1553 1546 1534 1521 1511 1502 1495 1487 1475 1464 1457 1451 1443 1435 1425 1413 1402 1396 1390 1383 1377 1373 1369 1367 1364 1365 1367 1368 
1187 1195 1201 1211 1220 1225 1239 1258 1271 1284 1303 1315 1320 1327 1336 1343 1344 1338 1350 1348 1351 1351 1352 1350 1354 1362 1372 1376 1374 1371 1371 1370 1371 1372 1370 1367 1365 1366 1367 1369 1368 1372 1382 1395 1396 1405 1410 1417 1421 1431 1474 1501 1508 1513 1525 1543 1556 1564 1571 1581 1588 1598 1608 1615 1619 1623 1629 1635 1640 1645 1651 1655 1660 1664 1667 1670 1672 1673 1673 1674 1675 1676 1678 1678 1677 1675 1675 1675 1673 1670 1666 1662 1657 1653 1648 1642 1637 1633 1628 1623 1619 1613 1605 1598 1593 1587 1578 1569 1558 1551 1543 1534 1524 1513 1503 1495 1486 1477 1469 1464 1458 1449 1439 1425 1414 1407 1401 1398 1391 1385 1382 1379 1378 1377 1376 1376 1377 
1178 1182 1188 1195 1205 1211 1218 1230 1246 1266 1286 1291 1291 1300 1312 1321 1323 1325 1326 1327 1329 1327 1329 1332 1333 1339 1342 1346 1350 1351 1354 1357 1356 1356 1352 1351 1351 1352 1350 1353 1354 1358 1362 1374 1380 1384 1391 1400 1414 1421 1439 1491 1496 1507 1522 1540 1555 1565 1570 1576 1588 1600 1609 1615 1618 1621 1626 1632 1639 1644 1649 1654 1658 1662 1665 1668 1671 1672 1672 1672 1672 1673 1674 1674 1674 1674 1675 1674 1672 1668 1664 1661 1658 1652 1647 1643 1637 1633 1629 1625 1620 1612 1605 1599 1592 1584 1575 1566 1558 1550 1541 1532 1525 1517 1506 1497 1489 1481 1473 1466 1461 1452 1441 1430 1421 1414 1408 1403 1400 1395 1389 1388 1387 1387 1387 1387 1386 
1170 1174 1179 1186 1190 1195 1199 1208 1222 1243 1263 1267 1265 1274 1280 1292 1308 1311 1313 1305 1303 1304 1309 1313 1315 1316 1317 1324 1328 1332 1334 1339 1343 1342 1340 1340 1340 1341 1342 1344 1345 1349 1355 1362 1367 1372 1382 1397 1408 1423 1438 1486 1497 1510 1522 1540 1556 1563 1569 1581 1592 1602 1611 1617 1620 1623 1627 1631 1636 1642 1646 1650 1656 1661 1664 1668 1670 1672 1672 1671 1671 1671 1672 1673 1673 1673 1673 1671 1668 1665 1661 1657 1654 1651 1649 1644 1639 1634 1631 1627 1621 1614 1607 1599 1592 1584 1576 1568 1559 1550 1540 1532 1525 1517 1508 1500 1492 1484 1477 1469 1462 1454 1448 1440 1433 1426 1418 1411 1407 1403 1399 1396 1395 1395 1395 1394 1394 
1168 1172 1176 1180 1182 1182 1184 1192 1201 1216 1230 1239 1246 1252 1256 1262 1271 1286 1285 1285 1285 1284 1290 1295 1296 1299 1303 1309 1314 1316 1321 1325 1328 1331 1334 1334 1334 1335 1335 1336 1340 1344 1350 1357 1363 1370 1381 1389 1402 1421 1444 1486 1502 1515 1525 1542 1555 1563 1571 1583 1596 1605 1614 1620 1624 1627 1630 1632 1636 1641 1645 1648 1654 1660 1664 1666 1669 1669 1669 1669 1669 1669 1670 1671 1672 1671 1669 1666 1663 1660 1658 1655 1652 1650 1648 1645 1640 1636 1631 1626 1620 1614 1607 1599 1591 1583 1577 1569 1560 1550 1540 1533 1526 1519 1512 1503 1496 1489 1481 1472 1465 1458 1451 1446 1440 1433 1425 1419 1415 1412 1411 1410 1408 1406 1405 1404 1400 
1168 1172 1174 1176 1176 1178 1182 1183 1188 1196 1206 1214 1226 1236 1239 1243 1248 1251 1260 1267 1270 1272 1277 1278 1284 1288 1292 1299 1305 1309 1313 1317 1321 1323 1327 1332 1331 1331 1332 1334 1339 1343 1349 1355 1363 1373 1381 1389 1405 1425 1445 1466 1494 1517 1528 1542 1564 1577 1580 1591 1602 1610 1618 1625 1628 1629 1632 1635 1638 1642 1645 1649 1655 1659 1662 1664 1666 1667 1667 1667 1668 1667 1667 1668 1668 1666 1664 1661 1658 1654 1653 1651 1650 1648 1647 1644 1641 1638 1633 1626 1621 1615 1608 1600 1592 1585 1577 1571 1564 1554 1546 1540 1532 1524 1516 1508 1502 1496 1488 1481 1474 1467 1459 1452 1446 1440 1434 1431 1428 1425 1422 1419 1417 1416 1414 1410 1405 
1168 1170 1170 1170 1175 1180 1183 1185 1185 1189 1194 1200 1212 1223 1227 1230 1233 1236 1243 1249 1253 1259 1263 1268 1272 1278 1285 1291 1298 1302 1307 1312 1316 1320 1323 1327 1329 1330 1332 1336 1339 1345 1353 1361 1368 1378 1386 1397 1418 1439 1452 1462 1483 1525 1535 1545 1566 1588 1596 1604 1611 1618 1622 1627 1629 1630 1634 1638 1642 1646 1649 1652 1656 1659 1660 1662 1664 1666 1666 1666 1666 1665 1663 1663 1663 1661 1659 1656 1652 1649 1647 1646 1646 1645 1643 1641 1640 1638 1635 1632 1627 1621 1614 1607 1597 1588 1579 1571 1564 1557 1551 1548 1540 1532 1523 1515 1508 1502 1498 1492 1485 1478 1472 1464 1455 1449 1444 1442 1439 1437 1434 1431 1430 1428 1427 1419 1409 
1167 1169 1168 1172 1175 1178 1182 1185 1187 1188 1192 1196 1200 1210 1216 1219 1220 1222 1228 1237 1241 1245 1252 1258 1265 1274 1280 1287 1295 1301 1307 1311 1317 1321 1324 1329 1333 1336 1340 1343 1349 1355 1364 1373 1381 1386 1391 1408 1429 1449 1463 1477 1516 1529 1540 1554 1571 1586 1597 1608 1616 1619 1623 1628 1631 1632 1636 1641 1646 1651 1652 1654 1656 1658 1660 1661 1662 1662 1663 1664 1663 1661 1660 1659 1659 1658 1656 1652 1648 1644 1642 1641 1640 1639 1638 1636 1636 1636 1634 1633 1630 1625 1618 1611 1601 1590 1582 1575 1567 1560 1554 1550 1546 1539 1530 1521 1513 1509 1506 1500 1493 1488 1484 1477 1469 1461 1455 1453 1451 1447 1446 1443 1440 1437 1435 1428 1420 
1164 1168 1171 1173 1176 1176 1179 1183 1184 1185 1189 1192 1196 1201 1207 1210 1212 1215 1220 1225 1231 1238 1245 1253 1263 1272 1281 1290 1300 1308 1315 1321 1326 1332 1335 1339 1342 1343 1348 1354 1361 1367 1372 1378 1385 1395 1411 1422 1442 1461 1469 1483 1517 1532 1551 1564 1572 1584 1596 1607 1617 1623 1627 1631 1634 1638 1642 1646 1649 1652 1655 1655 1657 1658 1659 1660 1660 1660 1659 1660 1660 1658 1656 1655 1655 1654 1652 1649 1646 1641 1638 1636 1635 1634 1633 1632 1632 1632 1631 1631 1627 1622 1618 1613 1605 1597 1589 1581 1575 1567 1560 1555 1548 1542 1535 1526 1518 1513 1509 1506 1501 1494 1490 1486 1480 1474 1469 1464 1462 1460 1457 1453 1449 1444 1440 1437 1432 
1162 1167 1172 1176 1178 1178 1178 1178 1177 1179 1182 1188 1190 1193 1197 1203 1207 1210 1214 1221 1227 1235 1247 1257 1266 1275 1285 1296 1308 1320 1325 1331 1337 1342 1347 1352 1355 1363 1369 1371 1379 1379 1382 1394 1402 1420 1437 1449 1458 1472 1482 1499 1520 1538 1554 1568 1577 1589 1603 1614 1624 1629 1632 1634 1638 1643 1647 1649 1652 1655 1657 1658 1660 1660 1659 1659 1658 1658 1657 1658 1656 1654 1652 1652 1651 1648 1646 1644 1641 1639 1635 1632 1631 1631 1631 1629 1628 1629 1629 1627 1624 1621 1619 1615 1610 1602 1595 1589 1581 1573 1568 1561 1553 1547 1541 1533 1525 1518 1514 1510 1507 1502 1496 1493 1489 1484 1480 1477 1473 1469 1464 1458 1454 1449 1445 1442 1440 
1162 1169 1173 1178 1179 1179 1179 1178 1178 1179 1182 1186 1189 1191 1194 1199 1201 1204 1208 1215 1221 1231 1246 1260 1272 1285 1293 1310 1329 1339 1344 1353 1359 1360 1370 1375 1386 1393 1398 1403 1402 1411 1411 1428 1434 1445 1456 1468 1475 1489 1500 1520 1536 1553 1563 1572 1585 1599 1612 1623 1630 1635 1638 1641 1645 1649 1649 1651 1654 1656 1658 1659 1661 1661 1661 1659 1658 1658 1657 1655 1653 1652 1650 1649 1648 1645 1642 1640 1638 1635 1633 1630 1629 1629 1628 1626 1625 1625 1625 1625 1624 1622 1620 1616 1611 1603 1595 1587 1582 1577 1571 1565 1560 1553 1548 1543 1534 1527 1522 1519 1513 1507 1502 1499 1498 1495 1493 1490 1485 1479 1473 1466 1461 1456 1451 1450 1448 
1164 1169 1175 1177 1179 1180 1180 1181 1182 1183 1184 1187 1190 1192 1195 1196 1196 1198 1205 1212 1218 1226 1244 1264 1280 1295 1306 1318 1340 1349 1360 1376 1395 1395 1395 1404 1410 1415 1418 1428 1435 1449 1453 1458 1460 1469 1482 1489 1494 1503 1520 1536 1551 1560 1565 1578 1594 1609 1619 1625 1632 1639 1644 1648 1650 1652 1653 1654 1655 1657 1659 1661 1662 1661 1661 1660 1658 1657 1655 1653 1651 1650 1648 1646 1644 1641 1639 1637 1635 1633 1632 1629 1628 1627 1626 1625 1623 1621 1620 1620 1620 1619 1618 1615 1608 1599 1591 1586 1582 1578 1574 1568 1563 1556 1549 1545 1541 1535 1531 1525 1520 1515 1509 1505 1504 1503 1502 1499 1493 1487 1482 1476 1472 1467 1462 1458 1456 
1169 1173 1176 1178 1180 1180 1181 1182 1183 1184 1186 1190 1192 1192 1192 1193 1194 1198 1205 1212 1221 1230 1246 1269 1290 1303 1316 1342 1369 1379 1388 1398 1412 1425 1433 1439 1441 1440 1445 1454 1467 1477 1478 1477 1486 1499 1504 1509 1518 1525 1542 1555 1561 1568 1580 1594 1610 1619 1625 1629 1634 1640 1647 1651 1654 1655 1656 1657 1658 1659 1660 1662 1662 1662 1661 1659 1658 1655 1653 1651 1649 1646 1644 1642 1639 1637 1635 1634 1633 1633 1631 1629 1626 1625 1626 1624 1621 1618 1615 1613 1612 1612 1612 1608 1603 1597 1590 1585 1581 1578 1574 1570 1565 1560 1552 1546 1542 1540 1537 1533 1529 1523 1518 1513 1511 1509 1507 1504 1498 1492 1487 1482 1478 1474 1469 1466 1462 
1175 1178 1180 1182 1183 1184 1184 1185 1186 1187 1190 1194 1195 1195 1195 1196 1199 1203 1210 1218 1224 1237 1255 1274 1290 1315 1343 1366 1380 1395 1408 1423 1443 1454 1462 1468 1471 1475 1476 1486 1496 1503 1502 1503 1518 1529 1529 1539 1544 1551 1561 1570 1581 1592 1598 1609 1618 1626 1631 1634 1639 1644 1649 1654 1655 1657 1658 1659 1659 1660 1661 1662 1662 1661 1659 1658 1656 1654 1651 1649 1647 1644 1641 1638 1635 1632 1630 1629 1629 1628 1628 1625 1622 1621 1620 1619 1617 1613 1610 1608 1607 1608 1607 1605 1601 1594 1590 1586 1580 1576 1573 1568 1566 1561 1554 1549 1544 1541 1540 1537 1533 1530 1525 1521 1517 1513 1511 1507 1503 1499 1493 1490 1486 1483 1477 1473 1471 
1180 1184 1186 1186 1187 1188 1190 1190 1190 1192 1193 1195 1197 1199 1200 1202 1205 1211 1218 1223 1230 1241 1257 1275 1294 1343 1358 1369 1384 1400 1420 1437 1459 1473 1478 1483 1490 1496 1504 1509 1517 1523 1530 1529 1550 1551 1559 1563 1568 1573 1577 1585 1597 1606 1614 1621 1626 1633 1638 1643 1647 1650 1653 1656 1658 1660 1661 1662 1662 1662 1662 1663 1661 1659 1658 1655 1654 1653 1649 1646 1643 1641 1638 1634 1631 1629 1626 1624 1622 1621 1620 1620 1618 1617 1615 1615 1614 1612 1609 1607 1607 1607 1606 1603 1598 1592 1587 1583 1581 1577 1573 1569 1564 1559 1556 1553 1548 1543 1539 1535 1531 1530 1529 1527 1524 1519 1515 1512 1510 1506 1502 1499 1496 1492 1487 1484 1481 
1183 1187 1188 1188 1188 1189 1191 1191 1193 1193 1195 1198 1200 1204 1207 1210 1213 1217 1224 1231 1239 1252 1266 1282 1311 1351 1366 1377 1392 1413 1432 1448 1468 1483 1492 1497 1503 1509 1513 1522 1530 1537 1545 1550 1563 1567 1573 1580 1583 1586 1591 1596 1603 1612 1622 1630 1637 1639 1644 1650 1654 1655 1658 1659 1661 1663 1663 1664 1663 1662 1661 1661 1660 1658 1655 1654 1652 1650 1647 1644 1641 1638 1634 1630 1627 1624 1621 1619 1617 1615 1615 1615 1614 1613 1612 1611 1612 1612 1609 1607 1607 1606 1605 1601 1595 1589 1585 1581 1577 1575 1571 1567 1561 1556 1553 1551 1546 1542 1538 1533 1532 1532 1532 1531 1529 1523 1520 1518 1516 1514 1513 1509 1505 1502 1501 1499 1494 
1184 1187 1188 1189 1189 1189 1190 1190 1190 1192 1196 1200 1204 1208 1215 1222 1225 1226 1231 1238 1248 1259 1276 1289 1317 1351 1364 1381 1400 1418 1439 1455 1472 1496 1507 1517 1528 1536 1535 1542 1550 1556 1561 1566 1572 1577 1582 1589 1593 1599 1603 1608 1612 1620 1631 1638 1640 1643 1646 1650 1655 1658 1659 1661 1663 1664 1665 1664 1663 1662 1660 1658 1656 1655 1654 1651 1649 1646 1642 1638 1636 1634 1630 1625 1622 1619 1617 1613 1612 1610 1609 1609 1609 1609 1609 1609 1609 1609 1608 1605 1605 1606 1606 1601 1596 1589 1584 1580 1576 1572 1568 1563 1558 1553 1550 1546 1542 1538 1535 1534 1534 1537 1537 1535 1532 1529 1527 1525 1524 1526 1525 1522 1517 1513 1512 1508 1504 
1187 1188 1190 1191 1193 1194 1192 1191 1192 1196 1201 1206 1209 1214 1221 1227 1230 1234 1240 1252 1263 1272 1288 1303 1329 1349 1366 1386 1403 1420 1443 1469 1488 1511 1525 1538 1549 1555 1555 1559 1566 1570 1577 1580 1584 1587 1590 1595 1602 1607 1611 1615 1620 1627 1635 1641 1645 1649 1653 1655 1658 1661 1662 1664 1666 1668 1667 1666 1665 1664 1661 1657 1655 1653 1652 1650 1647 1642 1636 1633 1630 1627 1624 1620 1617 1614 1611 1608 1606 1604 1603 1604 1605 1607 1608 1606 1605 1604 1603 1602 1601 1601 1601 1599 1593 1588 1583 1579 1578 1574 1569 1564 1560 1556 1553 1548 1541 1537 1536 1536 1538 1540 1540 1538 1536 1537 1535 1534 1534 1537 1537 1535 1530 1525 1520 1517 1513 
1195 1198 1198 1200 1201 1203 1201 1201 1200 1208 1214 1218 1220 1225 1231 1235 1240 1245 1253 1269 1278 1287 1298 1315 1333 1346 1363 1380 1402 1425 1451 1475 1500 1519 1535 1549 1560 1566 1569 1571 1578 1583 1588 1589 1591 1595 1601 1605 1610 1613 1616 1621 1627 1635 1642 1648 1653 1659 1662 1664 1667 1668 1668 1669 1670 1671 1669 1667 1666 1666 1663 1659 1655 1652 1649 1646 1643 1638 1633 1629 1625 1621 1618 1615 1612 1609 1606 1605 1603 1602 1600 1599 1601 1604 1605 1605 1603 1602 1601 1600 1598 1596 1595 1594 1591 1588 1584 1580 1578 1576 1573 1569 1567 1565 1560 1553 1547 1541 1539 1539 1540 1541 1541 1540 1542 1543 1546 1546 1549 1551 1551 1548 1541 1536 1531 1527 1521 
1213 1215 1216 1216 1218 1219 1219 1219 1221 1225 1230 1233 1236 1239 1243 1248 1254 1260 1270 1280 1288 1298 1310 1323 1336 1352 1364 1381 1403 1429 1457 1478 1497 1515 1533 1549 1564 1570 1575 1579 1587 1594 1598 1597 1600 1604 1608 1612 1615 1619 1623 1630 1638 1644 1649 1653 1659 1664 1667 1670 1672 1672 1671 1670 1669 1668 1667 1665 1665 1665 1662 1658 1653 1648 1644 1640 1636 1632 1628 1625 1621 1615 1613 1610 1608 1605 1603 1601 1601 1600 1599 1598 1599 1601 1601 1601 1600 1599 1599 1595 1594 1592 1592 1589 1588 1586 1581 1577 1576 1576 1576 1575 1571 1568 1565 1561 1555 1550 1544 1541 1540 1542 1543 1545 1547 1550 1554 1556 1559 1562 1563 1560 1555 1549 1544 1539 1531 
1232 1234 1237 1238 1237 1236 1238 1238 1242 1246 1250 1254 1256 1258 1258 1263 1268 1275 1282 1290 1299 1310 1319 1332 1346 1360 1372 1388 1410 1433 1455 1475 1490 1507 1528 1547 1563 1577 1583 1589 1595 1599 1603 1608 1609 1611 1614 1617 1621 1625 1629 1636 1644 1649 1653 1657 1661 1664 1668 1671 1673 1672 1670 1669 1667 1665 1662 1662 1662 1660 1658 1654 1648 1643 1640 1636 1632 1628 1624 1620 1616 1612 1609 1607 1605 1602 1599 1599 1599 1599 1598 1597 1597 1599 1601 1598 1596 1595 1592 1592 1590 1589 1588 1587 1586 1584 1580 1573 1574 1576 1575 1573 1571 1568 1567 1566 1563 1558 1551 1546 1544 1545 1546 1549 1552 1557 1561 1567 1572 1576 1576 1573 1568 1561 1555 1549 1543 
1249 1250 1253 1254 1254 1256 1261 1266 1268 1269 1272 1275 1278 1277 1279 1285 1292 1297 1302 1306 1311 1319 1327 1342 1358 1373 1385 1402 1417 1437 1456 1472 1488 1504 1525 1545 1562 1578 1588 1593 1599 1603 1609 1612 1615 1617 1620 1624 1627 1631 1635 1642 1647 1651 1654 1657 1659 1662 1665 1667 1668 1670 1670 1668 1666 1663 1662 1660 1657 1653 1649 1647 1641 1637 1635 1633 1629 1624 1619 1615 1610 1607 1606 1604 1601 1599 1597 1598 1598 1597 1595 1593 1593 1595 1595 1593 1592 1591 1588 1586 1586 1586 1584 1584 1582 1579 1574 1570 1569 1570 1571 1568 1566 1566 1564 1564 1563 1560 1555 1552 1549 1550 1549 1551 1555 1561 1568 1574 1584 1588 1588 1584 1576 1567 1560 1556 1553 
1272 1271 1272 1275 1275 1279 1287 1290 1290 1290 1292 1297 1299 1303 1307 1310 1317 1325 1323 1326 1327 1337 1341 1352 1374 1386 1397 1407 1423 1441 1459 1474 1489 1505 1525 1543 1559 1576 1589 1595 1600 1606 1610 1614 1619 1623 1626 1628 1631 1636 1642 1646 1649 1652 1654 1656 1658 1658 1659 1660 1661 1663 1663 1662 1662 1660 1659 1659 1655 1647 1644 1641 1635 1630 1627 1626 1623 1617 1613 1608 1604 1603 1602 1601 1601 1600 1598 1595 1593 1591 1588 1585 1584 1585 1585 1586 1585 1585 1582 1581 1581 1580 1580 1578 1576 1571 1564 1560 1560 1560 1560 1559 1557 1558 1558 1558 1558 1556 1553 1550 1550 1551 1550 1552 1559 1567 1575 1582 1591 1597 1598 1596 1589 1577 1569 1563 1560 
1296 1297 1295 1298 1297 1298 1301 1304 1308 1310 1311 1313 1321 1325 1326 1329 1333 1339 1340 1346 1354 1362 1362 1367 1385 1395 1407 1417 1430 1449 1467 1482 1495 1512 1529 1544 1558 1573 1589 1599 1605 1608 1613 1618 1624 1628 1630 1632 1636 1640 1643 1647 1649 1651 1652 1653 1653 1652 1652 1653 1654 1654 1653 1653 1653 1652 1650 1649 1648 1642 1638 1634 1629 1624 1621 1618 1613 1606 1603 1602 1600 1598 1597 1598 1597 1596 1593 1589 1586 1583 1579 1576 1575 1576 1577 1578 1578 1578 1578 1574 1571 1571 1571 1571 1568 1564 1556 1550 1551 1553 1551 1549 1550 1550 1551 1550 1551 1549 1547 1545 1545 1548 1551 1555 1563 1572 1578 1582 1589 1601 1605 1604 1599 1591 1584 1575 1569 
1321 1326 1319 1318 1317 1315 1316 1322 1328 1332 1337 1342 1342 1346 1349 1350 1353 1358 1366 1370 1379 1385 1387 1387 1397 1409 1423 1435 1448 1461 1473 1486 1501 1517 1536 1559 1571 1580 1593 1604 1611 1614 1618 1622 1628 1631 1633 1636 1638 1642 1645 1647 1648 1648 1648 1647 1644 1643 1642 1643 1643 1643 1642 1642 1641 1640 1637 1635 1633 1630 1627 1626 1622 1617 1614 1610 1603 1599 1596 1596 1595 1592 1589 1588 1589 1588 1587 1583 1580 1576 1572 1569 1567 1567 1567 1569 1569 1569 1566 1563 1561 1559 1559 1558 1557 1554 1547 1542 1543 1543 1542 1541 1539 1540 1540 1539 1538 1540 1540 1539 1542 1546 1551 1555 1563 1572 1578 1583 1593 1600 1607 1609 1608 1604 1597 1589 1581 
1346 1346 1343 1338 1339 1342 1341 1342 1346 1357 1363 1370 1373 1377 1377 1378 1382 1387 1392 1399 1401 1404 1403 1406 1415 1423 1433 1445 1461 1474 1484 1497 1530 1545 1561 1579 1587 1595 1606 1613 1620 1624 1625 1631 1634 1635 1635 1637 1639 1642 1644 1645 1643 1642 1641 1639 1637 1634 1633 1632 1632 1633 1633 1632 1630 1627 1624 1623 1622 1619 1617 1614 1608 1605 1603 1600 1595 1591 1590 1589 1587 1581 1575 1574 1574 1576 1577 1573 1569 1565 1562 1560 1559 1556 1556 1560 1560 1558 1557 1555 1550 1549 1548 1547 1546 1541 1534 1533 1530 1530 1529 1529 1528 1527 1528 1528 1528 1530 1532 1535 1537 1542 1548 1554 1559 1567 1574 1582 1592 1601 1607 1612 1613 1611 1609 1603 1596 
1363 1362 1359 1360 1365 1372 1372 1372 1380 1381 1388 1394 1400 1403 1402 1402 1406 1407 1413 1417 1419 1419 1420 1425 1435 1442 1455 1475 1480 1492 1514 1539 1553 1565 1577 1589 1601 1612 1620 1627 1629 1630 1633 1637 1639 1640 1639 1639 1640 1641 1641 1641 1639 1636 1633 1631 1630 1627 1626 1625 1624 1624 1623 1620 1617 1615 1614 1614 1612 1608 1604 1599 1596 1593 1591 1588 1581 1576 1573 1572 1570 1566 1563 1561 1558 1554 1552 1552 1552 1552 1551 1548 1541 1536 1535 1540 1545 1546 1545 1541 1538 1538 1537 1533 1528 1522 1516 1512 1508 1511 1514 1516 1514 1517 1518 1517 1516 1520 1524 1530 1533 1539 1546 1552 1558 1563 1571 1578 1586 1596 1603 1611 1615 1616 1615 1613 1608 
1381 1384 1380 1382 1386 1394 1396 1400 1400 1399 1404 1412 1419 1424 1431 1428 1426 1428 1429 1437 1436 1441 1442 1447 1457 1467 1488 1497 1504 1513 1531 1559 1573 1584 1598 1610 1618 1621 1630 1636 1638 1639 1642 1645 1646 1645 1644 1643 1642 1641 1641 1639 1636 1632 1629 1626 1624 1622 1619 1617 1617 1616 1613 1609 1607 1606 1605 1603 1598 1593 1590 1589 1586 1582 1577 1573 1566 1559 1554 1550 1548 1546 1546 1547 1542 1536 1534 1535 1532 1530 1527 1519 1519 1518 1514 1513 1516 1520 1522 1522 1523 1522 1519 1515 1507 1499 1499 1494 1488 1488 1494 1496 1498 1503 1507 1504 1503 1507 1515 1523 1529 1535 1542 1548 1552 1558 1565 1573 1580 1587 1598 1606 1613 1620 1622 1619 1613 
1399 1401 1402 1398 1401 1404 1407 1410 1419 1419 1422 1432 1437 1445 1448 1446 1444 1449 1451 1459 1463 1467 1466 1472 1483 1492 1505 1511 1521 1540 1566 1580 1592 1603 1615 1624 1628 1632 1636 1642 1646 1647 1650 1650 1651 1651 1650 1648 1645 1643 1641 1638 1634 1630 1626 1623 1620 1617 1614 1613 1611 1608 1605 1603 1600 1599 1596 1591 1587 1583 1580 1579 1575 1569 1564 1557 1552 1548 1542 1536 1530 1529 1528 1525 1524 1522 1519 1515 1510 1503 1498 1496 1497 1501 1499 1494 1494 1496 1501 1503 1506 1506 1502 1493 1485 1482 1478 1475 1470 1467 1468 1473 1477 1488 1494 1497 1498 1500 1506 1514 1522 1529 1537 1543 1547 1553 1560 1567 1573 1581 1593 1601 1606 1616 1622 1621 1618 
1413 1412 1411 1411 1414 1415 1418 1424 1430 1437 1445 1453 1459 1459 1462 1461 1464 1465 1477 1483 1486 1490 1489 1498 1505 1515 1524 1536 1546 1573 1584 1598 1616 1623 1629 1637 1640 1641 1643 1648 1651 1652 1653 1655 1657 1657 1657 1654 1650 1647 1643 1637 1633 1629 1624 1619 1616 1612 1609 1607 1605 1601 1599 1595 1592 1587 1582 1581 1578 1574 1570 1566 1562 1557 1551 1545 1539 1533 1527 1521 1515 1511 1505 1504 1504 1502 1499 1498 1493 1485 1477 1471 1475 1476 1470 1472 1476 1478 1480 1486 1490 1488 1482 1472 1466 1464 1462 1455 1452 1451 1453 1457 1464 1473 1482 1489 1492 1496 1500 1507 1515 1525 1532 1537 1544 1550 1557 1562 1567 1575 1586 1593 1599 1606 1612 1614 1611 
1416 1417 1417 1420 1424 1430 1438 1445 1450 1455 1471 1481 1492 1492 1489 1499 1500 1504 1515 1511 1507 1505 1511 1517 1525 1530 1546 1562 1571 1586 1599 1615 1631 1634 1639 1644 1647 1650 1651 1654 1655 1656 1658 1662 1661 1663 1661 1657 1652 1647 1640 1635 1631 1625 1620 1615 1611 1608 1604 1601 1597 1593 1591 1587 1582 1577 1574 1572 1569 1564 1559 1556 1551 1545 1540 1534 1525 1515 1508 1500 1494 1490 1486 1481 1478 1475 1473 1471 1470 1464 1452 1444 1443 1444 1448 1453 1459 1460 1461 1461 1462 1464 1459 1457 1454 1450 1445 1443 1441 1442 1441 1444 1453 1462 1470 1476 1484 1490 1496 1504 1514 1523 1530 1535 1537 1545 1553 1558 1563 1569 1577 1586 1592 1594 1599 1599 1600 
1417 1418 1420 1425 1434 1445 1451 1459 1467 1473 1483 1494 1504 1506 1511 1524 1531 1532 1533 1532 1533 1526 1524 1537 1543 1562 1587 1588 1595 1603 1613 1627 1639 1641 1644 1647 1650 1653 1654 1655 1657 1659 1661 1662 1662 1662 1661 1657 1650 1642 1636 1632 1628 1622 1616 1611 1607 1603 1599 1595 1591 1587 1583 1580 1574 1569 1567 1563 1559 1554 1549 1544 1539 1533 1526 1519 1511 1503 1497 1489 1479 1473 1466 1458 1451 1448 1449 1450 1444 1434 1429 1424 1421 1422 1429 1437 1438 1440 1439 1438 1442 1445 1446 1446 1444 1439 1433 1427 1430 1431 1431 1436 1444 1454 1460 1466 1477 1487 1494 1501 1511 1522 1529 1532 1534 1537 1545 1552 1559 1564 1569 1575 1581 1584 1583 1583 1583 
1417 1418 1422 1427 1438 1447 1455 1464 1472 1475 1482 1498 1508 1511 1517 1529 1536 1541 1547 1552 1554 1554 1551 1562 1577 1602 1607 1613 1616 1624 1632 1643 1650 1652 1652 1653 1655 1655 1655 1655 1656 1658 1659 1659 1659 1658 1657 1653 1647 1639 1632 1627 1624 1619 1613 1607 1602 1599 1596 1592 1587 1581 1575 1570 1566 1563 1559 1555 1550 1545 1540 1536 1531 1524 1517 1510 1503 1494 1486 1478 1471 1465 1459 1449 1440 1435 1432 1426 1420 1416 1411 1405 1402 1402 1408 1410 1408 1409 1412 1416 1425 1432 1435 1436 1435 1430 1425 1418 1419 1420 1426 1431 1438 1445 1451 1461 1473 1484 1492 1499 1508 1517 1524 1528 1530 1534 1542 1548 1552 1558 1562 1565 1567 1569 1571 1571 1569 
1412 1414 1420 1423 1432 1444 1453 1463 1471 1477 1484 1496 1507 1515 1522 1529 1536 1549 1556 1561 1565 1564 1570 1581 1597 1609 1615 1622 1628 1635 1641 1649 1656 1658 1658 1658 1658 1657 1656 1656 1657 1658 1657 1656 1655 1654 1653 1648 1642 1638 1632 1625 1620 1615 1609 1604 1598 1594 1592 1588 1580 1574 1569 1563 1559 1555 1553 1548 1544 1539 1534 1530 1525 1518 1508 1500 1492 1484 1476 1466 1459 1453 1447 1440 1428 1417 1412 1408 1403 1397 1391 1388 1388 1385 1381 1379 1379 1382 1385 1392 1402 1412 1419 1423 1421 1422 1418 1412 1411 1414 1418 1425 1428 1436 1449 1460 1470 1479 1489 1498 1507 1513 1519 1525 1532 1536 1540 1546 1551 1554 1555 1555 1555 1555 1557 1559 1558 
1400 1404 1410 1416 1424 1437 1447 1456 1466 1475 1481 1490 1504 1512 1522 1527 1533 1544 1555 1561 1563 1566 1573 1588 1598 1607 1615 1624 1631 1634 1639 1647 1656 1663 1664 1664 1662 1659 1658 1658 1657 1656 1654 1652 1650 1649 1647 1644 1639 1634 1629 1623 1617 1611 1606 1600 1593 1589 1585 1579 1573 1568 1562 1557 1552 1548 1544 1541 1536 1533 1528 1523 1517 1510 1501 1491 1482 1474 1467 1460 1449 1440 1432 1423 1411 1400 1392 1387 1385 1380 1374 1371 1369 1365 1362 1361 1361 1361 1366 1374 1377 1384 1393 1401 1402 1405 1406 1406 1405 1405 1409 1415 1420 1430 1445 1458 1467 1475 1485 1498 1507 1512 1515 1523 1532 1536 1540 1545 1549 1550 1549 1547 1546 1544 1544 1542 1544 
1389 1390 1398 1405 1415 1429 1442 1449 1456 1467 1478 1485 1491 1499 1505 1512 1525 1536 1543 1552 1561 1566 1577 1591 1599 1605 1613 1625 1631 1637 1642 1649 1659 1664 1667 1667 1665 1663 1662 1660 1659 1655 1652 1649 1646 1644 1642 1639 1636 1632 1627 1620 1614 1607 1602 1596 1589 1584 1579 1572 1566 1561 1557 1552 1548 1543 1538 1534 1529 1525 1520 1514 1506 1499 1491 1483 1475 1467 1459 1451 1440 1429 1421 1416 1407 1392 1378 1371 1366 1364 1360 1357 1351 1345 1342 1341 1341 1342 1343 1345 1351 1354 1357 1366 1379 1386 1394 1397 1398 1398 1401 1407 1416 1426 1438 1454 1465 1471 1485 1497 1506 1512 1515 1521 1528 1535 1538 1541 1543 1544 1541 1538 1534 1530 1525 1522 1520 
1372 1377 1384 1395 1406 1418 1430 1435 1440 1453 1465 1475 1481 1484 1489 1500 1514 1529 1536 1540 1552 1567 1577 1592 1598 1606 1613 1625 1633 1642 1648 1653 1658 1662 1665 1666 1666 1664 1662 1660 1658 1655 1651 1646 1643 1640 1637 1635 1633 1629 1624 1618 1611 1604 1597 1592 1586 1580 1575 1567 1560 1555 1552 1549 1546 1540 1534 1528 1523 1517 1512 1507 1498 1489 1481 1475 1468 1459 1449 1440 1431 1422 1414 1406 1397 1385 1371 1360 1354 1350 1345 1340 1339 1334 1326 1324 1322 1321 1321 1324 1328 1330 1331 1341 1353 1365 1375 1382 1388 1390 1394 1400 1410 1423 1437 1451 1462 1473 1486 1498 1504 1512 1516 1518 1526 1532 1536 1539 1539 1537 1534 1529 1524 1519 1516 1513 1511 
1347 1362 1369 1382 1394 1400 1412 1419 1427 1433 1445 1453 1461 1470 1475 1489 1503 1513 1524 1532 1541 1553 1569 1584 1594 1602 1612 1621 1633 1644 1651 1654 1656 1660 1663 1665 1664 1662 1661 1659 1657 1654 1648 1643 1639 1637 1633 1630 1626 1623 1619 1613 1606 1600 1594 1589 1582 1576 1569 1562 1556 1552 1548 1545 1540 1534 1528 1523 1518 1512 1507 1501 1491 1483 1475 1468 1461 1451 1441 1433 1422 1412 1405 1397 1386 1373 1361 1353 1348 1341 1331 1326 1322 1319 1315 1311 1307 1305 1303 1307 1311 1315 1318 1327 1338 1348 1357 1364 1372 1381 1387 1393 1403 1418 1431 1446 1465 1479 1492 1499 1506 1511 1517 1521 1524 1528 1532 1534 1533 1530 1527 1523 1518 1511 1509 1506 1503 
