ncols        162
nrows        117
xllcorner    86.9040277778
yllcorner    27.9673611111
cellsize 30
7213 7237 7257 7271 7289 7337 7353 7362 7379 7404 7424 7442 7460 7473 7513 7551 7565 7582 7599 7610 7613 7628 7638 7643 7665 7689 7735 7766 7779 7798 7829 7881 7896 7920 7946 7976 8006 8037 8061 8078 8123 8161 8202 8246 8264 8273 8274 8272 8277 8285 8281 8280 8288 8291 8278 8260 8249 8238 8225 8207 8188 8172 8154 8132 8114 8099 8084 8065 8044 8030 8024 8008 7979 7951 7932 7911 7886 7860 7847 7840 7825 7800 7791 7781 7748 7720 7717 7716 7700 7693 7683 7682 7683 7682 7677 7666 7652 7636 7630 7617 7589 7570 7554 7539 7528 7512 7493 7483 7466 7450 7440 7435 7424 7414 7405 7402 7391 7374 7364 7362 7362 7358 7349 7330 7319 7305 7289 7283 7283 7268 7234 7224 7224 7205 7182 7179 7174 7178 7195 7214 7219 7208 7155 7140 7134 7143 7152 7146 7142 7139 7139 7143 7141 7140 7123 7109 7103 7102 7103 7098 7091 7091
7202 7223 7249 7256 7274 7325 7343 7355 7366 7396 7413 7433 7448 7452 7480 7509 7531 7548 7573 7587 7598 7611 7625 7631 7648 7664 7702 7743 7764 7787 7814 7836 7864 7877 7917 7950 7977 8011 8036 8055 8111 8166 8196 8208 8269 8295 8289 8298 8304 8308 8310 8300 8301 8297 8289 8272 8258 8247 8236 8221 8195 8182 8169 8143 8127 8118 8108 8092 8069 8053 8041 8022 7993 7970 7953 7937 7899 7874 7863 7854 7840 7823 7812 7801 7774 7745 7745 7741 7738 7722 7711 7708 7706 7703 7702 7689 7668 7654 7644 7631 7611 7602 7595 7570 7546 7538 7535 7516 7502 7476 7465 7456 7452 7429 7422 7418 7406 7395 7385 7384 7384 7379 7368 7359 7343 7328 7315 7304 7304 7290 7271 7247 7249 7236 7202 7213 7196 7202 7213 7231 7232 7212 7190 7176 7172 7191 7179 7174 7163 7158 7171 7166 7170 7163 7147 7126 7124 7109 7113 7121 7115 7104
7180 7220 7241 7251 7267 7294 7328 7344 7358 7370 7389 7410 7431 7444 7460 7481 7496 7521 7549 7571 7586 7588 7606 7619 7635 7649 7673 7712 7740 7769 7790 7812 7837 7859 7892 7927 7951 7990 8014 8039 8088 8139 8183 8203 8261 8306 8314 8328 8329 8334 8327 8322 8318 8305 8290 8277 8264 8253 8243 8228 8206 8194 8185 8165 8144 8137 8128 8112 8095 8072 8050 8033 8018 7995 7978 7957 7926 7893 7873 7864 7856 7845 7828 7812 7792 7772 7757 7755 7753 7752 7771 7742 7729 7723 7716 7707 7695 7675 7666 7648 7632 7623 7615 7595 7581 7566 7568 7547 7528 7514 7497 7489 7466 7448 7432 7433 7430 7420 7411 7409 7409 7398 7384 7371 7358 7347 7335 7328 7320 7307 7293 7278 7264 7273 7259 7271 7240 7234 7245 7254 7245 7235 7222 7225 7208 7202 7197 7197 7187 7185 7191 7196 7184 7174 7161 7150 7137 7137 7140 7143 7129 7111
7160 7201 7226 7245 7264 7290 7314 7329 7343 7355 7361 7385 7412 7431 7452 7471 7481 7509 7527 7542 7567 7572 7581 7601 7621 7637 7654 7675 7702 7738 7764 7790 7817 7843 7868 7909 7948 7972 7994 8022 8047 8080 8134 8186 8199 8254 8269 8297 8320 8354 8349 8342 8328 8316 8299 8287 8273 8261 8248 8235 8216 8205 8198 8185 8168 8153 8139 8127 8113 8088 8058 8043 8033 8018 7995 7972 7948 7922 7897 7881 7873 7863 7849 7825 7809 7796 7785 7773 7776 7775 7778 7770 7752 7744 7728 7716 7705 7697 7684 7672 7657 7642 7633 7620 7608 7594 7578 7565 7551 7539 7524 7518 7497 7480 7468 7465 7464 7450 7436 7433 7431 7424 7407 7390 7376 7369 7353 7344 7338 7334 7320 7320 7299 7304 7296 7299 7277 7273 7276 7276 7264 7252 7248 7239 7230 7220 7213 7210 7207 7208 7207 7211 7213 7204 7177 7167 7159 7154 7154 7152 7149 7147
7156 7182 7199 7218 7254 7279 7295 7304 7315 7331 7348 7366 7389 7419 7433 7449 7464 7486 7506 7518 7537 7554 7566 7582 7601 7616 7638 7650 7669 7704 7746 7775 7800 7831 7862 7888 7915 7942 7969 7996 8018 8030 8026 8093 8190 8204 8244 8261 8308 8367 8367 8363 8354 8337 8317 8301 8286 8273 8258 8245 8232 8218 8208 8201 8186 8166 8149 8140 8128 8108 8074 8060 8049 8034 8004 7986 7972 7955 7930 7906 7887 7877 7862 7842 7822 7812 7801 7797 7796 7792 7791 7784 7774 7766 7748 7732 7720 7710 7701 7694 7677 7661 7647 7639 7627 7610 7596 7585 7572 7553 7543 7532 7518 7503 7492 7497 7486 7479 7462 7452 7449 7439 7425 7406 7396 7386 7374 7363 7358 7347 7339 7335 7332 7325 7311 7314 7301 7287 7289 7282 7280 7275 7267 7255 7246 7240 7232 7225 7221 7223 7225 7222 7223 7218 7193 7190 7179 7177 7172 7169 7169 7170
7141 7165 7180 7198 7235 7264 7270 7278 7287 7308 7334 7347 7373 7402 7410 7424 7442 7460 7477 7494 7515 7536 7554 7566 7582 7595 7609 7628 7657 7685 7725 7765 7796 7817 7844 7864 7882 7905 7932 7968 7994 8003 8050 8079 8126 8180 8207 8249 8284 8325 8379 8383 8375 8362 8342 8320 8301 8289 8275 8257 8246 8236 8223 8212 8201 8173 8158 8148 8136 8119 8096 8083 8067 8050 8025 8004 7993 7981 7960 7931 7906 7895 7884 7862 7842 7827 7828 7811 7808 7808 7804 7801 7791 7777 7767 7760 7742 7726 7715 7705 7694 7681 7667 7654 7648 7646 7630 7618 7599 7586 7560 7537 7531 7512 7508 7501 7507 7497 7491 7468 7460 7450 7440 7432 7421 7412 7401 7391 7373 7357 7347 7354 7352 7350 7336 7330 7323 7314 7304 7302 7295 7294 7288 7276 7266 7260 7253 7249 7240 7240 7239 7230 7222 7223 7207 7207 7213 7206 7207 7192 7183 7181
7122 7143 7164 7177 7223 7247 7253 7258 7267 7287 7306 7331 7359 7384 7392 7406 7424 7440 7457 7477 7501 7518 7532 7552 7566 7581 7590 7611 7643 7677 7715 7747 7769 7792 7815 7836 7859 7881 7922 7953 7984 7992 8035 8047 8091 8144 8181 8213 8264 8322 8385 8383 8379 8372 8360 8347 8322 8305 8294 8278 8260 8245 8233 8224 8208 8185 8169 8164 8152 8126 8110 8102 8080 8063 8047 8035 8014 7998 7985 7939 7918 7910 7905 7894 7872 7861 7854 7841 7832 7833 7827 7816 7808 7793 7787 7782 7767 7750 7733 7721 7714 7705 7691 7681 7672 7663 7657 7641 7628 7614 7600 7606 7561 7531 7538 7536 7538 7521 7512 7479 7474 7477 7467 7455 7447 7435 7427 7412 7396 7374 7375 7373 7372 7365 7362 7352 7345 7339 7331 7324 7315 7312 7312 7302 7295 7290 7278 7267 7260 7253 7250 7250 7238 7234 7229 7231 7236 7234 7227 7211 7200 7195
7088 7115 7142 7156 7175 7209 7214 7238 7245 7259 7279 7311 7340 7362 7376 7393 7409 7428 7445 7461 7480 7503 7515 7537 7550 7558 7570 7598 7627 7652 7682 7713 7730 7754 7794 7820 7848 7875 7906 7934 7958 7986 7986 7985 8078 8112 8143 8192 8212 8299 8379 8375 8374 8382 8384 8373 8348 8322 8304 8292 8276 8264 8243 8230 8214 8195 8184 8180 8172 8149 8126 8113 8095 8074 8063 8052 8038 8022 8008 7984 7932 7925 7921 7911 7900 7894 7869 7849 7879 7875 7860 7842 7838 7824 7813 7802 7789 7775 7761 7742 7738 7723 7706 7699 7696 7684 7672 7660 7641 7635 7639 7637 7630 7585 7558 7568 7574 7558 7568 7516 7511 7507 7497 7476 7463 7452 7436 7424 7413 7400 7408 7393 7384 7381 7370 7372 7366 7359 7348 7344 7338 7329 7327 7325 7319 7313 7301 7280 7272 7267 7270 7272 7263 7251 7248 7259 7251 7249 7237 7227 7216 7218
7060 7086 7110 7145 7151 7159 7168 7213 7226 7230 7252 7288 7307 7335 7372 7379 7394 7417 7438 7447 7463 7485 7502 7520 7535 7543 7557 7574 7599 7619 7645 7680 7709 7741 7785 7813 7840 7867 7884 7909 7938 7979 7982 7991 8068 8097 8105 8141 8196 8366 8372 8370 8372 8389 8401 8398 8370 8341 8315 8299 8291 8277 8255 8241 8229 8213 8197 8190 8185 8170 8152 8137 8112 8097 8077 8069 8059 8043 8030 8013 7977 7948 7938 7928 7926 7923 7901 7891 7891 7892 7878 7869 7866 7855 7834 7820 7805 7794 7777 7761 7743 7727 7711 7712 7714 7700 7691 7679 7674 7660 7650 7643 7644 7631 7612 7590 7588 7585 7588 7561 7545 7535 7523 7503 7489 7465 7450 7446 7435 7428 7425 7419 7415 7404 7397 7390 7387 7380 7369 7362 7359 7350 7343 7338 7329 7321 7313 7308 7305 7291 7288 7287 7286 7268 7267 7266 7264 7258 7250 7240 7233 7235
7039 7051 7078 7109 7130 7125 7138 7175 7207 7218 7230 7259 7269 7318 7363 7362 7376 7394 7423 7441 7451 7471 7486 7498 7517 7527 7542 7561 7572 7609 7633 7667 7696 7726 7766 7794 7823 7848 7870 7896 7925 7951 7974 7986 7994 8080 8098 8112 8161 8217 8262 8357 8354 8379 8406 8410 8393 8366 8347 8332 8308 8294 8270 8258 8246 8232 8216 8202 8194 8184 8174 8156 8140 8123 8109 8092 8078 8061 8043 8028 8002 7976 7957 7953 7946 7943 7937 7932 7936 7918 7907 7897 7890 7879 7853 7838 7827 7814 7791 7777 7769 7745 7726 7731 7728 7715 7700 7696 7686 7681 7667 7654 7647 7644 7626 7610 7596 7592 7599 7598 7573 7557 7546 7531 7517 7497 7494 7480 7471 7454 7444 7440 7434 7427 7419 7413 7406 7398 7388 7382 7378 7366 7356 7347 7335 7323 7321 7329 7329 7320 7303 7298 7301 7297 7285 7281 7281 7272 7268 7264 7256 7248
7016 7026 7054 7075 7093 7093 7122 7154 7184 7200 7217 7234 7235 7267 7325 7343 7353 7372 7397 7432 7441 7455 7470 7485 7497 7507 7513 7537 7564 7605 7626 7656 7685 7711 7735 7765 7786 7808 7854 7866 7901 7926 7954 7973 7989 8001 8068 8082 8089 8185 8247 8341 8341 8360 8395 8402 8406 8392 8386 8369 8348 8318 8293 8279 8264 8251 8230 8217 8199 8194 8191 8177 8160 8148 8136 8117 8094 8079 8065 8048 8023 8002 7985 7979 7971 7968 7955 7946 7949 7945 7933 7920 7911 7896 7882 7864 7847 7837 7821 7801 7800 7779 7759 7752 7748 7738 7732 7713 7701 7695 7685 7672 7664 7646 7640 7621 7608 7598 7615 7612 7591 7572 7562 7546 7537 7539 7532 7509 7499 7487 7476 7457 7450 7445 7443 7440 7434 7419 7410 7400 7390 7377 7368 7365 7353 7348 7336 7341 7347 7338 7326 7309 7311 7305 7304 7301 7297 7293 7288 7290 7283 7277
6988 7016 7034 7049 7048 7075 7095 7135 7159 7182 7194 7201 7184 7216 7264 7318 7333 7356 7381 7411 7435 7446 7461 7477 7491 7495 7503 7519 7534 7577 7619 7647 7677 7695 7710 7731 7728 7771 7803 7837 7867 7907 7928 7953 7975 7991 8028 8059 8077 8099 8211 8328 8327 8339 8353 8374 8388 8403 8401 8387 8369 8346 8321 8303 8291 8275 8261 8239 8226 8210 8210 8206 8190 8173 8158 8139 8120 8101 8090 8075 8043 8020 8002 8000 7999 8004 7985 7975 7969 7958 7950 7942 7932 7920 7913 7899 7874 7856 7845 7834 7821 7804 7785 7772 7769 7763 7757 7750 7722 7709 7699 7690 7687 7689 7673 7667 7638 7628 7635 7637 7617 7580 7577 7560 7553 7559 7559 7543 7526 7518 7510 7483 7471 7468 7467 7470 7463 7449 7431 7418 7401 7391 7387 7388 7380 7372 7366 7372 7374 7369 7358 7342 7329 7335 7328 7325 7311 7315 7310 7308 7305 7298
6970 7002 7023 7018 7048 7066 7093 7111 7135 7172 7177 7177 7178 7193 7248 7297 7322 7342 7355 7384 7408 7434 7449 7466 7480 7487 7495 7507 7523 7540 7566 7621 7647 7664 7683 7702 7725 7766 7794 7827 7875 7894 7905 7925 7950 7980 8008 8036 8078 8116 8175 8230 8310 8317 8336 8346 8369 8401 8412 8404 8392 8371 8348 8327 8314 8297 8278 8268 8254 8251 8239 8228 8215 8203 8185 8165 8149 8133 8117 8097 8067 8034 8027 8025 8030 8030 8016 8004 7992 7989 7975 7969 7954 7942 7937 7931 7911 7898 7873 7855 7842 7825 7809 7794 7786 7779 7768 7755 7740 7719 7714 7714 7709 7710 7705 7692 7675 7665 7658 7654 7654 7633 7604 7620 7578 7576 7581 7576 7562 7549 7537 7507 7493 7485 7483 7479 7476 7465 7451 7436 7419 7404 7406 7408 7405 7397 7395 7392 7396 7389 7379 7355 7360 7356 7356 7355 7350 7336 7330 7327 7321 7313
6972 6990 6993 6995 7013 7045 7071 7100 7132 7149 7171 7175 7177 7181 7213 7287 7315 7330 7347 7363 7385 7414 7434 7443 7456 7474 7488 7495 7507 7531 7541 7570 7609 7631 7669 7693 7726 7764 7801 7828 7863 7890 7883 7902 7931 7977 8007 8030 8072 8097 8141 8195 8246 8277 8321 8341 8352 8395 8415 8423 8411 8400 8382 8364 8342 8313 8291 8282 8276 8274 8264 8258 8236 8221 8209 8192 8173 8155 8139 8117 8090 8064 8056 8059 8060 8056 8039 8025 8015 8003 7998 7986 7975 7964 7955 7952 7942 7927 7905 7888 7866 7848 7841 7829 7808 7786 7779 7770 7755 7742 7737 7738 7732 7728 7715 7704 7702 7688 7678 7669 7658 7667 7666 7663 7631 7611 7612 7609 7596 7584 7554 7533 7519 7509 7501 7498 7491 7479 7468 7462 7451 7429 7414 7420 7421 7419 7410 7403 7398 7396 7381 7364 7369 7370 7371 7371 7359 7348 7340 7344 7340 7329
6949 6958 6981 6991 7007 7027 7058 7094 7123 7138 7170 7175 7175 7172 7205 7280 7297 7318 7332 7353 7370 7392 7416 7426 7439 7458 7477 7489 7498 7504 7525 7566 7596 7630 7657 7690 7731 7763 7794 7823 7840 7858 7867 7894 7919 7947 7983 8011 8046 8059 8107 8154 8181 8224 8270 8281 8327 8356 8388 8420 8421 8417 8413 8394 8373 8359 8325 8305 8293 8286 8282 8272 8259 8249 8233 8214 8195 8176 8154 8122 8106 8090 8083 8080 8071 8061 8054 8051 8040 8029 8017 8007 7992 7981 7972 7966 7956 7944 7928 7908 7889 7870 7858 7852 7834 7799 7788 7777 7772 7763 7752 7751 7755 7748 7733 7721 7716 7708 7697 7691 7698 7692 7687 7677 7660 7646 7648 7641 7627 7611 7593 7572 7540 7528 7523 7522 7513 7497 7491 7489 7481 7459 7444 7436 7435 7431 7423 7414 7403 7389 7379 7379 7390 7386 7389 7382 7372 7362 7357 7356 7349 7358
6942 6952 6976 6989 7009 7021 7052 7100 7116 7121 7163 7173 7179 7189 7223 7248 7276 7294 7311 7324 7350 7375 7396 7417 7427 7441 7458 7477 7490 7496 7512 7554 7587 7618 7641 7657 7710 7738 7772 7798 7816 7827 7847 7876 7900 7920 7943 7959 8012 8050 8070 8134 8163 8213 8225 8250 8276 8314 8353 8385 8430 8433 8431 8418 8400 8388 8367 8332 8315 8309 8303 8291 8278 8267 8260 8237 8224 8201 8175 8126 8110 8107 8100 8092 8074 8079 8071 8074 8063 8049 8038 8026 8007 7995 7982 7977 7971 7960 7947 7930 7907 7888 7872 7864 7853 7824 7807 7795 7786 7789 7774 7764 7763 7760 7747 7740 7731 7724 7718 7712 7714 7709 7708 7696 7680 7674 7666 7664 7653 7629 7616 7608 7582 7545 7541 7541 7527 7514 7504 7499 7492 7482 7463 7457 7447 7435 7437 7436 7431 7422 7420 7412 7402 7401 7408 7405 7391 7384 7375 7364 7358 7368
6933 6945 6971 6984 7008 7020 7065 7093 7105 7124 7153 7157 7181 7205 7226 7243 7261 7281 7299 7312 7329 7356 7380 7402 7416 7431 7437 7457 7477 7490 7504 7540 7575 7598 7623 7650 7683 7721 7733 7752 7799 7816 7830 7856 7875 7892 7908 7941 7985 8003 8061 8109 8136 8154 8203 8203 8217 8280 8318 8367 8402 8446 8447 8438 8432 8417 8402 8372 8342 8338 8325 8308 8296 8286 8268 8255 8242 8224 8192 8152 8139 8128 8122 8103 8099 8111 8098 8096 8091 8076 8058 8045 8040 8025 8000 7993 7987 7979 7968 7956 7935 7910 7893 7877 7869 7856 7843 7830 7822 7816 7806 7783 7783 7777 7770 7764 7758 7744 7746 7730 7729 7729 7732 7726 7706 7696 7687 7677 7666 7655 7643 7634 7606 7580 7568 7567 7548 7525 7515 7502 7501 7494 7483 7475 7460 7459 7461 7459 7453 7444 7439 7444 7409 7413 7423 7415 7407 7399 7386 7365 7368 7393
6924 6935 6956 6970 6993 7042 7059 7089 7098 7122 7144 7160 7182 7206 7219 7231 7252 7269 7292 7301 7318 7343 7369 7382 7404 7422 7426 7445 7468 7484 7496 7526 7558 7581 7611 7640 7683 7706 7715 7729 7776 7802 7824 7842 7857 7881 7892 7918 7949 7965 8004 8067 8107 8124 8140 8177 8204 8215 8287 8337 8372 8413 8457 8449 8446 8434 8422 8407 8381 8365 8353 8330 8318 8308 8294 8273 8261 8242 8219 8188 8163 8141 8132 8134 8164 8151 8148 8131 8134 8119 8094 8074 8078 8070 8033 8021 8007 8002 7991 7979 7963 7941 7923 7903 7890 7877 7866 7853 7844 7833 7822 7814 7808 7808 7797 7789 7773 7772 7770 7761 7753 7759 7750 7739 7724 7724 7705 7696 7688 7678 7672 7656 7628 7603 7597 7589 7573 7550 7537 7523 7517 7513 7504 7511 7499 7490 7487 7475 7472 7474 7468 7472 7468 7459 7452 7448 7435 7423 7421 7425 7417 7418
6920 6926 6946 6959 6986 7034 7049 7053 7067 7112 7132 7155 7185 7199 7209 7220 7239 7256 7270 7286 7306 7328 7347 7364 7384 7408 7429 7444 7462 7479 7496 7518 7546 7572 7586 7614 7637 7663 7665 7710 7742 7772 7811 7834 7853 7839 7858 7899 7932 7953 7983 8037 8076 8109 8125 8139 8181 8223 8261 8311 8337 8413 8429 8455 8461 8451 8441 8434 8404 8384 8368 8354 8337 8324 8310 8294 8275 8257 8233 8211 8190 8174 8162 8169 8179 8178 8181 8181 8169 8152 8124 8115 8114 8110 8077 8056 8040 8024 8013 7997 7980 7972 7952 7926 7910 7893 7883 7875 7860 7852 7841 7838 7829 7821 7819 7808 7774 7780 7789 7782 7776 7770 7763 7745 7740 7727 7739 7731 7724 7708 7695 7681 7658 7640 7629 7620 7595 7583 7569 7557 7539 7525 7526 7531 7516 7515 7509 7500 7493 7494 7496 7489 7484 7478 7477 7465 7450 7445 7448 7444 7448 7458
6927 6921 6920 6962 6991 7007 7019 7043 7070 7106 7128 7146 7168 7191 7205 7214 7225 7246 7260 7272 7287 7312 7334 7351 7366 7394 7425 7447 7461 7469 7482 7509 7507 7560 7568 7590 7619 7631 7649 7680 7725 7753 7788 7819 7839 7839 7852 7889 7909 7935 7966 7996 8057 8083 8112 8131 8185 8205 8217 8284 8318 8351 8426 8447 8474 8480 8473 8461 8443 8396 8377 8357 8345 8336 8320 8304 8288 8268 8252 8241 8208 8195 8173 8177 8182 8187 8194 8200 8200 8186 8156 8141 8142 8126 8114 8092 8076 8070 8045 8029 8003 7977 7968 7952 7931 7915 7903 7893 7882 7872 7864 7854 7846 7837 7837 7839 7793 7803 7806 7803 7790 7777 7774 7768 7762 7756 7783 7766 7755 7738 7723 7698 7690 7671 7667 7644 7617 7601 7593 7575 7562 7548 7545 7549 7545 7539 7537 7528 7524 7522 7521 7519 7509 7504 7500 7494 7477 7464 7460 7461 7468 7475
6924 6936 6946 6964 6996 7013 7030 7048 7080 7103 7118 7134 7149 7177 7196 7208 7219 7238 7252 7264 7278 7300 7315 7345 7366 7384 7415 7441 7457 7460 7474 7487 7496 7548 7567 7589 7612 7643 7650 7675 7716 7745 7771 7792 7798 7824 7849 7876 7895 7913 7934 7967 8027 8054 8092 8128 8175 8202 8227 8251 8295 8340 8394 8436 8484 8493 8498 8495 8473 8436 8399 8376 8356 8344 8332 8325 8309 8288 8273 8268 8228 8220 8201 8191 8206 8215 8221 8227 8236 8224 8194 8176 8167 8156 8138 8124 8104 8092 8082 8066 8040 8007 7980 7969 7950 7935 7928 7919 7906 7894 7880 7870 7863 7863 7855 7860 7843 7824 7818 7816 7811 7803 7781 7782 7784 7797 7801 7791 7780 7765 7757 7726 7706 7698 7687 7671 7642 7619 7603 7591 7580 7577 7569 7567 7571 7570 7559 7553 7546 7544 7540 7534 7529 7521 7518 7511 7501 7483 7468 7468 7480 7487
6910 6944 6957 6972 6997 7015 7035 7051 7065 7092 7106 7123 7137 7153 7174 7194 7217 7229 7242 7255 7271 7290 7303 7330 7359 7390 7411 7427 7443 7467 7476 7487 7493 7536 7588 7600 7612 7635 7647 7679 7713 7734 7753 7765 7796 7816 7837 7857 7869 7889 7930 7960 7985 8042 8094 8121 8156 8204 8228 8249 8251 8303 8339 8400 8452 8497 8504 8502 8483 8464 8437 8408 8380 8360 8352 8343 8329 8301 8289 8284 8246 8233 8232 8220 8228 8240 8270 8274 8274 8258 8235 8213 8201 8189 8169 8146 8128 8113 8109 8097 8071 8047 8014 7988 7970 7955 7949 7943 7934 7920 7899 7888 7884 7884 7882 7869 7865 7842 7825 7819 7825 7825 7807 7806 7814 7825 7819 7811 7804 7791 7755 7750 7727 7718 7710 7698 7669 7640 7625 7608 7606 7601 7593 7584 7605 7603 7596 7587 7573 7567 7556 7552 7545 7538 7540 7532 7519 7508 7504 7500 7494 7486
6897 6917 6937 6958 6980 6999 7027 7038 7046 7069 7083 7102 7121 7129 7152 7173 7202 7219 7229 7245 7265 7279 7292 7327 7356 7388 7409 7414 7430 7465 7480 7506 7505 7528 7587 7614 7601 7619 7637 7667 7709 7734 7730 7735 7787 7810 7819 7833 7858 7872 7913 7951 7974 8006 8076 8095 8142 8190 8231 8244 8251 8264 8324 8368 8422 8473 8500 8501 8497 8495 8485 8453 8421 8390 8376 8364 8336 8321 8369 8304 8301 8254 8234 8241 8262 8273 8300 8314 8320 8286 8269 8252 8231 8211 8188 8164 8147 8134 8123 8114 8108 8084 8071 8027 7999 7980 7970 7965 7951 7944 7932 7912 7913 7904 7889 7880 7884 7862 7861 7847 7843 7836 7832 7838 7842 7846 7841 7828 7822 7818 7790 7766 7748 7733 7736 7723 7698 7664 7645 7631 7624 7621 7612 7610 7614 7608 7610 7592 7582 7565 7562 7560 7544 7550 7534 7527 7522 7513 7503 7494 7480 7465
6890 6902 6921 6940 6959 6989 7019 7031 7032 7041 7063 7078 7105 7123 7140 7160 7181 7210 7225 7245 7264 7273 7283 7316 7360 7386 7401 7406 7421 7452 7477 7499 7518 7527 7529 7568 7585 7600 7626 7644 7691 7730 7715 7724 7762 7789 7801 7820 7844 7868 7893 7925 7951 7981 8050 8082 8119 8161 8224 8236 8248 8262 8290 8337 8399 8445 8475 8511 8515 8522 8512 8487 8463 8428 8402 8384 8364 8345 8363 8367 8309 8299 8302 8307 8311 8317 8329 8345 8342 8315 8304 8294 8264 8241 8204 8190 8170 8156 8140 8125 8113 8106 8087 8073 8041 8013 8004 7987 7977 7968 7962 7943 7929 7929 7896 7900 7910 7891 7879 7875 7874 7866 7866 7866 7865 7862 7849 7856 7835 7821 7800 7784 7778 7757 7743 7719 7693 7668 7656 7650 7638 7635 7628 7631 7614 7613 7602 7586 7592 7582 7564 7534 7534 7530 7512 7498 7502 7499 7493 7480 7468 7455
6884 6895 6920 6939 6953 6981 7016 7027 7027 7034 7054 7087 7102 7118 7138 7156 7176 7205 7228 7248 7259 7269 7278 7308 7362 7383 7395 7416 7431 7450 7454 7479 7501 7516 7540 7562 7574 7591 7622 7630 7629 7669 7692 7702 7724 7758 7785 7806 7830 7869 7895 7916 7938 7967 8001 8054 8088 8147 8178 8224 8238 8250 8276 8292 8350 8400 8463 8507 8534 8535 8526 8510 8479 8454 8432 8411 8390 8367 8373 8365 8363 8355 8345 8342 8361 8380 8365 8377 8376 8349 8339 8332 8304 8285 8251 8230 8210 8187 8173 8148 8132 8122 8112 8093 8064 8047 8030 8010 7998 7990 7987 7976 7964 7978 7945 7939 7928 7917 7900 7904 7894 7892 7896 7894 7887 7891 7873 7855 7845 7819 7801 7791 7786 7780 7755 7743 7705 7687 7664 7652 7638 7637 7625 7619 7604 7593 7587 7585 7569 7560 7546 7528 7504 7497 7479 7466 7467 7483 7474 7454 7440 7442
6873 6891 6934 6959 6959 6979 7006 7020 7023 7039 7068 7094 7109 7109 7129 7154 7183 7201 7225 7240 7252 7258 7283 7307 7372 7374 7384 7415 7440 7445 7456 7471 7493 7501 7528 7559 7562 7583 7616 7630 7634 7655 7665 7678 7702 7725 7750 7782 7817 7877 7904 7918 7928 7948 7994 8013 8059 8118 8138 8162 8205 8224 8237 8267 8314 8363 8415 8489 8528 8542 8544 8532 8504 8470 8458 8454 8441 8390 8419 8391 8379 8373 8380 8382 8392 8396 8401 8408 8406 8392 8374 8360 8338 8303 8279 8263 8250 8235 8210 8177 8158 8149 8142 8130 8088 8075 8063 8043 8032 8013 8013 8006 7997 7990 7985 7964 7946 7938 7932 7930 7917 7919 7914 7913 7919 7904 7887 7870 7838 7809 7790 7791 7783 7780 7760 7738 7723 7701 7683 7661 7649 7642 7628 7606 7594 7578 7576 7579 7557 7530 7502 7487 7471 7461 7452 7429 7428 7435 7429 7411 7402 7392
6855 6894 6927 6950 6960 6975 6986 7004 7002 7043 7084 7118 7130 7152 7162 7179 7193 7205 7218 7237 7253 7255 7291 7318 7335 7362 7371 7397 7425 7437 7449 7472 7490 7495 7518 7547 7562 7583 7614 7618 7637 7644 7656 7666 7679 7703 7741 7766 7808 7880 7905 7920 7933 7943 7981 8008 8029 8075 8110 8137 8165 8197 8223 8229 8259 8341 8379 8450 8492 8524 8553 8551 8527 8504 8488 8486 8480 8464 8422 8441 8424 8392 8397 8417 8426 8439 8423 8423 8423 8413 8395 8379 8364 8331 8303 8288 8280 8271 8231 8211 8193 8180 8174 8134 8115 8101 8101 8081 8066 8049 8037 8031 8017 8012 7998 7991 7976 7964 7968 7962 7953 7946 7941 7941 7927 7918 7888 7862 7809 7793 7780 7777 7773 7769 7752 7734 7727 7707 7689 7670 7637 7623 7607 7585 7566 7551 7541 7529 7510 7515 7480 7458 7443 7432 7414 7395 7383 7371 7369 7373 7366 7347
6853 6876 6922 6947 6957 6967 6979 7009 7010 7051 7093 7125 7134 7163 7165 7179 7190 7199 7209 7237 7247 7281 7296 7324 7329 7346 7374 7390 7414 7432 7450 7470 7486 7491 7517 7549 7565 7586 7616 7627 7634 7642 7649 7658 7668 7693 7738 7768 7809 7876 7906 7923 7923 7943 7968 7990 8011 8052 8074 8104 8150 8162 8200 8220 8249 8303 8361 8411 8451 8491 8531 8562 8544 8525 8516 8514 8495 8480 8487 8492 8464 8442 8450 8453 8464 8459 8448 8448 8435 8429 8418 8401 8388 8370 8335 8315 8303 8279 8248 8241 8240 8228 8204 8166 8143 8137 8129 8123 8083 8062 8051 8045 8041 8030 8015 8007 7997 7997 7992 7990 7989 7982 7977 7957 7950 7935 7886 7835 7787 7768 7769 7762 7763 7754 7741 7740 7716 7697 7673 7634 7613 7595 7577 7549 7493 7474 7478 7475 7472 7476 7434 7422 7413 7397 7380 7352 7336 7330 7331 7317 7301 7292
6844 6873 6909 6931 6951 6965 6977 7013 7014 7068 7095 7116 7132 7154 7175 7186 7189 7200 7211 7230 7250 7270 7302 7328 7332 7355 7378 7390 7406 7429 7444 7466 7480 7495 7516 7543 7561 7578 7596 7611 7631 7640 7642 7649 7677 7703 7720 7768 7808 7863 7886 7897 7918 7935 7953 7969 7995 8013 8044 8088 8103 8150 8186 8224 8252 8293 8327 8376 8409 8471 8503 8538 8540 8545 8546 8528 8508 8481 8523 8523 8524 8506 8493 8492 8492 8493 8484 8472 8459 8452 8443 8432 8416 8400 8369 8342 8315 8285 8273 8274 8260 8253 8217 8201 8191 8176 8160 8153 8130 8089 8068 8060 8050 8037 8036 8027 8016 8023 8016 8023 8015 8009 7991 7980 7955 7937 7876 7818 7766 7763 7762 7763 7755 7744 7734 7726 7688 7667 7636 7608 7583 7565 7541 7499 7467 7460 7455 7450 7448 7438 7403 7385 7368 7357 7344 7325 7291 7286 7282 7276 7263 7252
6846 6870 6890 6929 6953 6967 6982 7012 7035 7067 7103 7113 7116 7142 7161 7174 7191 7201 7217 7240 7258 7272 7314 7320 7331 7363 7378 7387 7403 7424 7434 7442 7471 7491 7515 7534 7552 7575 7591 7615 7623 7635 7647 7668 7689 7700 7720 7770 7800 7855 7861 7889 7911 7925 7935 7951 7971 7999 8026 8069 8097 8121 8179 8219 8240 8287 8315 8346 8380 8427 8477 8506 8551 8556 8565 8570 8520 8549 8559 8555 8535 8529 8533 8523 8514 8507 8507 8514 8494 8475 8467 8459 8443 8411 8387 8368 8354 8320 8306 8302 8296 8248 8237 8218 8212 8209 8193 8176 8143 8126 8107 8086 8079 8054 8058 8047 8052 8049 8058 8053 8044 8036 8015 7998 7962 7929 7877 7821 7769 7760 7765 7766 7749 7737 7725 7687 7661 7638 7606 7588 7566 7546 7509 7477 7461 7456 7450 7439 7418 7412 7379 7354 7330 7313 7315 7300 7279 7263 7258 7248 7233 7218
6852 6875 6885 6930 6950 6963 6986 7009 7045 7069 7098 7103 7112 7122 7151 7179 7199 7216 7233 7252 7272 7293 7306 7317 7329 7355 7376 7387 7405 7422 7431 7442 7462 7489 7506 7519 7535 7582 7581 7611 7615 7636 7650 7666 7689 7700 7730 7766 7800 7842 7857 7892 7906 7919 7935 7947 7971 7995 8024 8053 8092 8112 8175 8223 8234 8267 8308 8328 8360 8416 8472 8509 8543 8561 8577 8589 8586 8586 8587 8589 8565 8550 8550 8541 8539 8545 8563 8559 8541 8508 8497 8476 8455 8426 8398 8385 8370 8336 8332 8306 8304 8300 8289 8280 8238 8244 8226 8203 8181 8160 8142 8120 8108 8103 8085 8074 8069 8063 8066 8068 8060 8050 8042 8016 7978 7925 7869 7822 7782 7771 7771 7765 7756 7738 7711 7664 7638 7610 7585 7571 7548 7534 7494 7464 7458 7452 7432 7416 7410 7379 7364 7333 7307 7289 7277 7273 7256 7238 7220 7209 7203 7191
6852 6880 6912 6951 6947 6970 6991 7011 7047 7074 7096 7102 7102 7126 7153 7193 7213 7235 7248 7260 7287 7298 7309 7319 7334 7353 7374 7387 7405 7421 7432 7449 7468 7486 7500 7512 7515 7554 7572 7590 7613 7628 7647 7662 7682 7695 7719 7764 7794 7836 7856 7881 7897 7912 7930 7943 7970 7991 8014 8049 8085 8113 8168 8200 8229 8273 8310 8332 8358 8400 8439 8493 8541 8549 8581 8594 8605 8602 8605 8607 8595 8583 8575 8574 8578 8578 8590 8578 8555 8553 8543 8500 8497 8459 8411 8445 8406 8349 8357 8357 8312 8314 8303 8282 8285 8283 8258 8242 8223 8194 8192 8186 8150 8128 8124 8111 8096 8093 8092 8088 8068 8059 8041 8009 7980 7926 7866 7796 7779 7783 7771 7766 7751 7724 7676 7647 7621 7601 7567 7560 7536 7503 7466 7456 7451 7441 7417 7411 7379 7364 7348 7326 7295 7268 7252 7241 7224 7199 7183 7174 7170 7160
6848 6891 6924 6944 6946 6969 6991 7007 7045 7072 7088 7098 7106 7127 7158 7199 7232 7245 7253 7263 7280 7295 7309 7324 7337 7353 7373 7383 7397 7416 7438 7455 7468 7484 7497 7514 7518 7523 7566 7587 7609 7617 7639 7649 7678 7682 7711 7739 7784 7823 7847 7860 7886 7910 7929 7945 7973 7990 7999 8055 8077 8117 8153 8205 8229 8279 8308 8322 8349 8358 8414 8491 8521 8548 8585 8603 8621 8621 8629 8637 8638 8604 8605 8601 8603 8620 8617 8595 8573 8569 8574 8552 8537 8505 8483 8472 8440 8411 8405 8363 8353 8352 8325 8336 8302 8301 8264 8255 8244 8237 8229 8216 8190 8173 8144 8138 8126 8114 8107 8099 8087 8066 8040 7989 7950 7895 7849 7802 7781 7778 7765 7755 7726 7688 7660 7638 7621 7593 7559 7529 7504 7468 7449 7442 7443 7424 7386 7378 7377 7368 7321 7292 7269 7250 7230 7212 7195 7179 7163 7146 7145 7140
6862 6895 6925 6946 6953 6965 6992 7015 7042 7069 7095 7110 7124 7139 7152 7198 7230 7244 7255 7271 7283 7293 7310 7329 7337 7351 7372 7382 7393 7412 7436 7461 7465 7487 7500 7514 7521 7549 7565 7577 7589 7610 7622 7649 7649 7668 7708 7736 7776 7813 7822 7848 7876 7909 7932 7943 7958 7973 8001 8052 8082 8104 8142 8183 8216 8241 8283 8306 8337 8350 8406 8470 8494 8511 8561 8587 8618 8632 8649 8661 8650 8641 8627 8634 8623 8632 8632 8620 8598 8597 8589 8574 8543 8527 8518 8510 8479 8482 8415 8408 8397 8393 8381 8350 8352 8328 8311 8282 8277 8267 8253 8245 8221 8195 8175 8149 8138 8139 8121 8108 8097 8065 8024 7992 7915 7884 7829 7800 7785 7761 7747 7733 7690 7662 7642 7629 7615 7591 7556 7512 7494 7454 7411 7417 7427 7403 7379 7363 7348 7322 7279 7247 7236 7215 7196 7179 7167 7156 7144 7132 7120 7120
6877 6902 6918 6937 6944 6970 6988 7007 7053 7072 7092 7132 7133 7148 7162 7190 7225 7243 7259 7276 7286 7291 7305 7326 7338 7349 7371 7387 7396 7410 7431 7453 7462 7489 7506 7513 7527 7551 7558 7579 7589 7610 7624 7638 7642 7658 7707 7746 7770 7793 7820 7850 7859 7907 7924 7936 7949 7975 8002 8052 8073 8102 8143 8177 8224 8239 8277 8295 8318 8356 8366 8414 8466 8505 8511 8592 8628 8645 8653 8663 8675 8678 8664 8668 8655 8642 8640 8631 8620 8614 8607 8599 8558 8547 8536 8529 8527 8480 8479 8430 8425 8417 8408 8381 8368 8348 8343 8315 8311 8291 8272 8257 8245 8220 8188 8168 8157 8142 8136 8112 8101 8058 8001 7977 7920 7877 7815 7784 7763 7725 7697 7687 7663 7640 7618 7609 7595 7572 7539 7501 7458 7416 7406 7407 7391 7384 7366 7326 7290 7268 7234 7222 7210 7189 7167 7157 7146 7134 7123 7109 7094 7085
6889 6901 6918 6932 6953 6981 7002 7020 7052 7090 7103 7124 7125 7137 7162 7177 7212 7241 7256 7269 7281 7289 7300 7314 7338 7350 7366 7378 7393 7405 7425 7448 7458 7481 7504 7513 7536 7554 7555 7574 7590 7612 7617 7625 7635 7654 7703 7739 7771 7781 7804 7842 7853 7875 7919 7939 7954 7980 8017 8050 8079 8103 8148 8183 8212 8234 8252 8296 8315 8342 8361 8378 8437 8474 8518 8574 8631 8642 8663 8672 8685 8687 8691 8684 8685 8652 8647 8639 8628 8626 8616 8602 8564 8552 8544 8539 8525 8524 8478 8461 8434 8431 8414 8407 8386 8368 8351 8353 8350 8314 8298 8271 8251 8226 8202 8181 8171 8148 8131 8112 8087 8032 7982 7916 7900 7861 7810 7772 7718 7689 7676 7637 7622 7609 7599 7596 7579 7554 7527 7499 7438 7412 7411 7363 7371 7363 7346 7322 7291 7260 7230 7201 7177 7161 7147 7138 7132 7114 7098 7088 7082 7067
6889 6911 6925 6931 6962 6995 7022 7060 7080 7087 7099 7117 7126 7138 7156 7173 7199 7238 7250 7261 7276 7287 7296 7311 7331 7348 7359 7379 7394 7408 7425 7446 7461 7480 7498 7528 7545 7535 7563 7567 7580 7593 7604 7622 7628 7666 7697 7721 7750 7773 7797 7820 7845 7859 7895 7935 7960 7999 8034 8050 8078 8112 8137 8157 8196 8226 8252 8301 8296 8323 8357 8375 8398 8443 8524 8559 8592 8639 8666 8677 8693 8702 8707 8710 8711 8687 8689 8676 8674 8665 8640 8611 8592 8566 8554 8548 8545 8526 8485 8464 8446 8434 8417 8414 8395 8382 8373 8361 8354 8343 8296 8270 8246 8222 8203 8186 8178 8144 8134 8088 8049 8028 7982 7919 7882 7842 7789 7720 7693 7671 7639 7629 7607 7590 7573 7573 7553 7535 7520 7492 7445 7460 7384 7351 7351 7345 7330 7312 7289 7251 7216 7179 7151 7138 7127 7115 7103 7091 7073 7068 7067 7057
6910 6921 6934 6956 6961 6985 7030 7054 7069 7084 7095 7113 7126 7143 7156 7173 7194 7228 7245 7257 7272 7285 7293 7305 7319 7336 7354 7381 7403 7418 7432 7447 7467 7485 7508 7512 7526 7538 7549 7558 7576 7592 7608 7626 7657 7673 7686 7707 7729 7752 7778 7808 7831 7849 7893 7930 7961 8003 8033 8052 8075 8106 8137 8156 8170 8200 8231 8272 8296 8300 8327 8354 8392 8423 8488 8564 8595 8636 8660 8679 8694 8705 8721 8732 8743 8741 8693 8693 8699 8685 8662 8641 8607 8589 8571 8551 8549 8512 8490 8465 8440 8415 8411 8410 8394 8383 8381 8365 8349 8329 8289 8247 8230 8213 8195 8186 8166 8132 8088 8048 8027 8006 7969 7913 7858 7817 7767 7708 7692 7670 7637 7611 7591 7574 7565 7552 7536 7512 7480 7440 7425 7432 7383 7348 7336 7325 7314 7286 7262 7230 7203 7178 7143 7124 7103 7079 7072 7061 7052 7045 7037 7022
6907 6921 6942 6959 6966 6976 7021 7050 7059 7075 7090 7103 7118 7132 7153 7171 7189 7212 7236 7248 7267 7280 7289 7298 7310 7324 7337 7361 7409 7425 7427 7443 7459 7484 7500 7515 7534 7541 7550 7564 7579 7594 7612 7632 7656 7675 7685 7705 7724 7737 7756 7784 7811 7843 7887 7918 7961 8005 8031 8051 8077 8108 8140 8157 8170 8189 8207 8236 8266 8287 8316 8346 8379 8418 8464 8497 8558 8591 8664 8675 8697 8705 8729 8744 8747 8744 8735 8703 8703 8695 8682 8666 8622 8594 8571 8552 8534 8518 8490 8451 8418 8404 8410 8396 8388 8379 8375 8345 8325 8297 8261 8226 8204 8195 8183 8164 8128 8093 8041 8034 8012 7976 7952 7892 7853 7772 7721 7703 7680 7677 7645 7608 7585 7568 7548 7536 7524 7504 7446 7421 7433 7390 7353 7335 7325 7325 7263 7210 7203 7187 7184 7165 7131 7101 7081 7062 7048 7037 7028 7021 7002 6982
6902 6923 6939 6956 6960 6968 7002 7036 7059 7073 7086 7095 7103 7115 7129 7158 7177 7191 7205 7232 7257 7276 7289 7298 7307 7317 7326 7358 7361 7406 7430 7449 7458 7469 7486 7508 7530 7544 7554 7576 7586 7599 7611 7626 7654 7673 7687 7705 7720 7732 7742 7764 7781 7813 7843 7899 7948 7994 8020 8044 8070 8104 8123 8149 8169 8176 8193 8223 8250 8280 8312 8348 8376 8403 8446 8482 8544 8587 8609 8671 8682 8703 8711 8740 8748 8741 8741 8725 8714 8702 8682 8669 8620 8590 8568 8549 8539 8509 8480 8421 8411 8399 8392 8377 8369 8367 8345 8313 8259 8264 8223 8194 8174 8154 8150 8125 8098 8051 8028 8020 7976 7953 7921 7877 7811 7775 7713 7679 7677 7640 7617 7603 7577 7566 7536 7524 7495 7461 7430 7395 7400 7388 7338 7311 7286 7250 7215 7200 7182 7168 7152 7129 7105 7080 7062 7047 7028 7013 7002 6987 6968 6955
6887 6910 6935 6952 6957 6960 6990 7016 7043 7065 7082 7086 7094 7107 7127 7146 7167 7181 7191 7211 7250 7248 7258 7275 7300 7318 7335 7346 7356 7396 7420 7446 7453 7458 7472 7503 7522 7536 7552 7568 7592 7596 7609 7626 7655 7671 7687 7701 7709 7728 7737 7752 7771 7805 7846 7897 7946 7988 8014 8037 8069 8102 8118 8140 8156 8175 8187 8214 8247 8280 8315 8344 8366 8408 8421 8470 8514 8543 8591 8606 8674 8681 8693 8736 8739 8743 8743 8734 8718 8700 8687 8646 8598 8585 8554 8544 8535 8515 8469 8405 8404 8386 8381 8366 8360 8342 8287 8260 8227 8223 8182 8161 8131 8137 8114 8102 8070 8052 8017 7987 7961 7920 7909 7837 7775 7733 7683 7666 7645 7619 7608 7586 7566 7544 7519 7495 7463 7459 7416 7376 7358 7344 7326 7304 7266 7232 7213 7199 7171 7140 7121 7102 7079 7061 7042 7022 7006 6992 6978 6959 6943 6935
6867 6884 6914 6941 6949 6950 6969 6992 7018 7042 7052 7070 7085 7103 7116 7148 7176 7182 7171 7181 7211 7222 7246 7266 7293 7311 7329 7343 7356 7383 7411 7437 7451 7459 7474 7480 7497 7518 7540 7564 7581 7596 7602 7628 7650 7676 7685 7703 7714 7731 7743 7757 7768 7805 7847 7897 7944 7991 8016 8034 8054 8102 8120 8132 8138 8161 8180 8203 8239 8279 8300 8338 8363 8381 8410 8465 8509 8513 8548 8577 8601 8653 8675 8694 8734 8745 8741 8728 8715 8697 8680 8638 8604 8569 8552 8532 8527 8491 8456 8405 8376 8363 8348 8328 8315 8291 8249 8223 8165 8151 8150 8128 8083 8088 8075 8064 8058 8016 8003 7954 7923 7906 7835 7782 7731 7694 7655 7640 7602 7582 7576 7571 7551 7527 7494 7458 7455 7409 7375 7337 7323 7318 7313 7297 7267 7228 7201 7191 7166 7132 7107 7083 7059 7037 7020 7001 6984 6965 6947 6934 6921 6916
6848 6866 6892 6911 6928 6940 6956 6968 6991 7023 7037 7048 7073 7102 7112 7123 7143 7160 7165 7172 7177 7223 7242 7262 7295 7312 7313 7328 7349 7373 7405 7435 7456 7463 7468 7475 7488 7513 7535 7555 7571 7600 7617 7627 7644 7666 7679 7699 7712 7726 7745 7753 7778 7811 7847 7888 7942 7982 8007 8023 8054 8068 8102 8123 8128 8141 8165 8200 8235 8261 8301 8339 8370 8383 8398 8440 8474 8510 8520 8545 8584 8623 8646 8683 8704 8718 8729 8722 8710 8692 8667 8619 8598 8568 8552 8521 8494 8473 8437 8405 8360 8337 8321 8306 8282 8242 8176 8168 8139 8122 8106 8087 8059 8062 8030 8023 8020 8004 7952 7912 7885 7823 7780 7733 7699 7643 7622 7584 7568 7538 7513 7498 7507 7492 7465 7447 7412 7373 7351 7326 7307 7293 7282 7272 7252 7219 7192 7172 7138 7109 7081 7054 7025 7013 7001 6977 6953 6935 6921 6912 6900 6891
6865 6873 6886 6899 6907 6922 6945 6958 6966 6987 7001 7004 7026 7065 7085 7111 7125 7142 7150 7156 7169 7214 7241 7275 7283 7306 7316 7331 7353 7369 7400 7432 7458 7465 7468 7477 7494 7518 7540 7571 7586 7605 7616 7632 7642 7658 7684 7700 7715 7724 7738 7762 7787 7821 7849 7891 7941 7977 7998 8020 8049 8073 8098 8117 8126 8139 8164 8201 8214 8247 8284 8316 8341 8373 8396 8450 8481 8503 8512 8528 8543 8566 8628 8647 8678 8697 8715 8713 8701 8678 8658 8614 8575 8554 8544 8494 8469 8439 8412 8372 8332 8320 8301 8286 8263 8169 8127 8120 8094 8084 8079 8063 8038 8015 7997 7981 7963 7941 7916 7877 7828 7780 7728 7693 7647 7620 7587 7560 7514 7503 7492 7500 7492 7474 7454 7399 7335 7314 7317 7309 7286 7257 7259 7249 7227 7191 7174 7147 7112 7090 7070 7046 7022 6998 6972 6951 6933 6916 6901 6892 6882 6868
6865 6866 6882 6886 6897 6914 6937 6948 6961 6963 6981 6995 7020 7041 7072 7099 7113 7124 7131 7151 7179 7208 7238 7277 7278 7292 7322 7335 7354 7385 7393 7440 7463 7468 7476 7486 7502 7525 7545 7570 7594 7611 7628 7637 7652 7664 7678 7700 7720 7732 7756 7774 7799 7827 7849 7875 7928 7975 7985 8008 8052 8083 8114 8129 8123 8149 8162 8179 8211 8246 8273 8302 8337 8371 8410 8446 8479 8501 8505 8517 8535 8550 8568 8623 8654 8682 8704 8700 8681 8661 8631 8586 8555 8537 8501 8476 8444 8419 8377 8353 8325 8305 8289 8269 8183 8128 8083 8075 8055 8045 8041 8036 8003 7977 7976 7959 7941 7914 7876 7820 7771 7713 7696 7651 7621 7592 7561 7518 7500 7496 7488 7473 7448 7474 7421 7367 7339 7320 7309 7283 7241 7217 7211 7200 7186 7162 7144 7132 7090 7071 7060 7044 7024 6999 6970 6942 6920 6903 6887 6872 6863 6847
6874 6868 6874 6888 6904 6921 6938 6945 6956 6962 6980 6993 7009 7037 7066 7092 7110 7115 7125 7153 7167 7201 7226 7252 7268 7294 7323 7343 7360 7378 7413 7440 7462 7470 7483 7501 7522 7542 7562 7585 7610 7629 7643 7645 7648 7660 7682 7717 7726 7750 7779 7803 7826 7841 7872 7872 7930 7973 7991 8007 8037 8079 8109 8129 8146 8144 8156 8171 8208 8242 8273 8309 8341 8373 8404 8442 8473 8477 8501 8523 8533 8545 8567 8600 8639 8668 8677 8675 8659 8634 8606 8575 8537 8505 8474 8449 8417 8392 8364 8337 8310 8279 8227 8190 8121 8070 8049 8037 8025 8008 7996 7966 7960 7946 7949 7932 7905 7874 7807 7772 7700 7690 7664 7642 7608 7576 7544 7524 7498 7478 7459 7431 7409 7387 7368 7345 7324 7306 7293 7268 7225 7197 7181 7167 7157 7145 7105 7070 7066 7065 7036 7021 7022 7011 6966 6939 6914 6888 6872 6856 6836 6820
6883 6885 6885 6895 6918 6937 6943 6948 6958 6974 6977 7000 7017 7034 7058 7092 7107 7119 7144 7149 7164 7192 7208 7216 7261 7282 7312 7337 7363 7378 7412 7441 7457 7478 7486 7501 7525 7561 7588 7607 7617 7636 7647 7650 7655 7673 7703 7729 7745 7760 7784 7818 7843 7856 7874 7915 7942 7971 7997 8020 8043 8086 8104 8130 8148 8158 8169 8174 8215 8252 8287 8316 8354 8378 8406 8429 8449 8468 8495 8515 8539 8558 8563 8592 8641 8656 8666 8662 8643 8627 8594 8543 8508 8477 8454 8430 8393 8371 8343 8315 8257 8215 8166 8115 8062 8046 8017 8000 7987 7972 7961 7944 7941 7926 7904 7879 7862 7807 7775 7697 7693 7667 7646 7607 7585 7566 7550 7527 7495 7458 7418 7394 7362 7348 7341 7328 7304 7277 7252 7237 7211 7189 7170 7147 7130 7105 7080 7062 7051 7029 7007 7001 7002 7003 6973 6921 6898 6879 6858 6832 6812 6798
6892 6895 6901 6919 6926 6934 6942 6955 6961 6973 6989 7017 7030 7045 7078 7097 7118 7142 7151 7158 7164 7180 7195 7206 7247 7282 7314 7341 7359 7378 7408 7434 7468 7480 7499 7527 7559 7576 7610 7609 7635 7645 7659 7684 7677 7703 7726 7743 7752 7763 7799 7836 7858 7882 7896 7927 7950 7973 8004 8027 8064 8083 8110 8127 8145 8159 8176 8180 8209 8259 8286 8322 8354 8378 8407 8419 8444 8458 8491 8516 8535 8561 8575 8600 8638 8648 8650 8642 8632 8603 8571 8528 8481 8463 8433 8401 8379 8351 8294 8224 8218 8172 8122 8059 8038 7997 7992 7980 7967 7943 7922 7901 7881 7869 7854 7834 7794 7773 7729 7690 7664 7644 7609 7589 7560 7555 7526 7512 7466 7416 7387 7362 7336 7318 7302 7289 7275 7260 7232 7204 7195 7179 7156 7130 7107 7084 7068 7054 7036 7020 7002 6986 6965 6935 6908 6897 6884 6864 6844 6820 6796 6778
6898 6914 6924 6929 6939 6944 6962 6981 6994 7008 7030 7050 7067 7076 7090 7111 7127 7143 7156 7166 7170 7177 7207 7231 7249 7288 7314 7344 7358 7379 7400 7435 7468 7489 7512 7539 7559 7598 7606 7619 7648 7661 7683 7688 7711 7730 7760 7767 7769 7775 7803 7851 7878 7899 7923 7941 7965 7993 8016 8035 8058 8089 8104 8130 8145 8162 8177 8181 8205 8249 8287 8334 8358 8379 8398 8421 8438 8457 8490 8513 8534 8557 8574 8597 8623 8637 8636 8629 8606 8577 8544 8506 8477 8441 8412 8386 8364 8315 8229 8197 8164 8118 8062 8023 8001 7984 7966 7953 7933 7906 7881 7841 7838 7804 7792 7790 7768 7739 7720 7674 7651 7604 7581 7562 7544 7522 7505 7476 7438 7399 7383 7348 7311 7293 7263 7250 7242 7229 7205 7181 7161 7138 7118 7105 7085 7066 7051 7037 7017 7001 6987 6970 6945 6918 6893 6886 6869 6848 6829 6804 6781 6763
6905 6916 6932 6939 6952 6964 6984 6997 7013 7029 7044 7062 7083 7089 7113 7130 7145 7153 7164 7161 7174 7185 7203 7237 7253 7298 7321 7346 7361 7379 7403 7427 7459 7492 7505 7531 7557 7600 7610 7621 7641 7667 7682 7703 7728 7766 7764 7769 7781 7791 7803 7847 7879 7912 7932 7958 7984 8006 8020 8041 8067 8086 8106 8130 8142 8167 8178 8190 8213 8255 8300 8334 8364 8374 8391 8420 8435 8445 8471 8509 8536 8560 8574 8584 8593 8621 8628 8613 8587 8557 8500 8494 8457 8420 8391 8361 8319 8267 8199 8158 8118 8059 8022 7988 7970 7959 7936 7918 7888 7858 7817 7801 7786 7792 7762 7747 7738 7725 7692 7674 7614 7583 7561 7551 7525 7504 7474 7449 7429 7388 7358 7335 7304 7280 7253 7230 7207 7193 7177 7156 7126 7105 7086 7065 7052 7042 7032 7018 7006 6988 6969 6951 6939 6918 6896 6874 6854 6824 6802 6785 6762 6745
6911 6925 6938 6952 6959 6978 6993 7009 7034 7058 7070 7083 7092 7108 7120 7128 7150 7173 7178 7184 7189 7203 7234 7253 7282 7323 7325 7360 7367 7389 7409 7423 7444 7470 7504 7528 7559 7574 7592 7613 7645 7679 7700 7714 7741 7769 7774 7785 7796 7800 7814 7854 7889 7916 7942 7965 7994 8014 8029 8049 8073 8091 8114 8144 8168 8184 8194 8208 8223 8251 8300 8326 8352 8370 8393 8415 8434 8441 8465 8488 8527 8554 8576 8578 8592 8607 8612 8603 8580 8530 8501 8477 8420 8393 8365 8326 8291 8206 8167 8112 8060 8002 7972 7945 7926 7902 7889 7890 7806 7784 7789 7777 7744 7733 7732 7725 7724 7688 7675 7634 7604 7575 7549 7534 7510 7477 7454 7432 7405 7360 7357 7318 7274 7262 7246 7220 7191 7166 7156 7135 7111 7096 7071 7047 7031 7023 7011 6994 6983 6972 6950 6928 6913 6902 6890 6868 6837 6801 6777 6768 6750 6735
6914 6931 6950 6959 6966 6985 7004 7024 7051 7071 7081 7098 7114 7129 7134 7151 7173 7190 7200 7220 7243 7254 7260 7282 7295 7322 7338 7355 7375 7398 7419 7435 7449 7472 7500 7528 7555 7569 7576 7606 7647 7680 7704 7727 7754 7778 7788 7799 7805 7806 7829 7864 7897 7922 7947 7969 7994 8018 8043 8049 8072 8084 8122 8149 8185 8188 8209 8218 8231 8267 8288 8323 8351 8370 8390 8409 8429 8444 8465 8485 8513 8540 8554 8571 8597 8604 8597 8600 8579 8520 8499 8447 8391 8369 8340 8303 8211 8162 8115 8030 7990 7958 7942 7922 7891 7881 7854 7803 7787 7765 7766 7745 7723 7711 7707 7697 7691 7669 7628 7604 7579 7557 7544 7524 7492 7468 7435 7411 7381 7356 7328 7303 7259 7242 7225 7203 7163 7136 7122 7105 7088 7077 7061 7036 7022 7008 6995 6983 6954 6939 6923 6902 6886 6870 6858 6846 6818 6783 6761 6745 6733 6721
6918 6942 6948 6966 6985 6998 7032 7055 7067 7080 7097 7111 7128 7142 7151 7160 7181 7200 7219 7241 7267 7267 7285 7294 7320 7334 7351 7373 7394 7410 7426 7439 7455 7478 7497 7527 7559 7562 7566 7602 7646 7673 7715 7744 7771 7784 7802 7814 7817 7830 7849 7888 7914 7932 7949 7977 8008 8030 8041 8046 8061 8084 8132 8161 8191 8194 8216 8230 8258 8277 8298 8325 8357 8371 8387 8417 8445 8462 8484 8495 8511 8532 8555 8566 8586 8596 8597 8584 8563 8519 8464 8411 8379 8353 8319 8228 8174 8125 8037 7994 7962 7941 7918 7889 7863 7848 7813 7797 7769 7750 7738 7729 7707 7694 7683 7670 7653 7616 7600 7574 7542 7540 7519 7499 7476 7429 7411 7386 7358 7340 7302 7268 7245 7224 7188 7155 7138 7115 7096 7076 7060 7042 7027 7011 7000 6980 6973 6962 6942 6921 6897 6877 6866 6851 6832 6819 6794 6765 6752 6737 6720 6703
6930 6947 6960 6990 7004 7022 7043 7064 7082 7101 7113 7127 7139 7141 7154 7170 7188 7208 7234 7257 7271 7285 7295 7316 7329 7344 7365 7379 7401 7426 7440 7452 7468 7492 7501 7537 7554 7560 7572 7613 7641 7685 7723 7750 7776 7797 7814 7818 7836 7851 7870 7885 7908 7926 7945 7972 8005 8024 8034 8043 8060 8104 8141 8172 8188 8201 8226 8238 8256 8272 8298 8338 8362 8370 8386 8419 8446 8462 8483 8504 8520 8533 8555 8563 8569 8587 8585 8578 8545 8490 8445 8389 8357 8324 8264 8197 8153 8059 8002 7964 7939 7920 7888 7864 7847 7819 7795 7771 7754 7733 7724 7711 7692 7684 7662 7647 7622 7593 7549 7518 7511 7510 7500 7482 7461 7434 7393 7360 7340 7306 7287 7252 7225 7196 7159 7133 7114 7102 7087 7062 7038 7013 6994 6983 6975 6960 6941 6933 6914 6892 6871 6856 6847 6836 6815 6787 6765 6748 6738 6730 6707 6690
6942 6968 6989 7013 7026 7046 7062 7072 7094 7114 7126 7138 7144 7151 7163 7178 7196 7222 7249 7258 7274 7288 7308 7324 7339 7357 7370 7392 7412 7434 7452 7465 7484 7507 7536 7554 7567 7577 7601 7625 7668 7698 7722 7741 7772 7789 7812 7827 7829 7843 7859 7885 7911 7925 7946 7974 7999 8020 8033 8058 8075 8118 8145 8176 8199 8210 8227 8245 8267 8279 8312 8348 8361 8369 8389 8417 8447 8463 8479 8510 8525 8537 8554 8562 8570 8569 8575 8557 8510 8449 8406 8366 8315 8272 8225 8149 8090 8010 7995 7970 7932 7902 7871 7855 7830 7785 7767 7758 7740 7722 7709 7692 7689 7671 7651 7616 7587 7554 7515 7497 7497 7487 7480 7463 7444 7395 7367 7348 7312 7286 7256 7228 7208 7165 7133 7116 7098 7088 7071 7048 7026 7000 6980 6963 6949 6939 6924 6911 6892 6867 6850 6843 6831 6808 6788 6768 6748 6730 6719 6703 6686 6670
6966 6998 7015 7039 7050 7066 7076 7094 7114 7126 7136 7142 7154 7154 7165 7189 7211 7237 7254 7274 7289 7302 7316 7334 7349 7360 7379 7398 7409 7431 7445 7473 7492 7520 7556 7569 7587 7599 7615 7656 7684 7706 7711 7731 7754 7778 7803 7823 7825 7844 7868 7893 7924 7931 7958 7985 8003 8024 8048 8080 8117 8143 8171 8182 8205 8221 8237 8244 8262 8284 8321 8354 8361 8371 8387 8414 8440 8459 8480 8513 8523 8542 8548 8555 8557 8558 8557 8506 8477 8436 8376 8320 8267 8222 8169 8129 8057 8010 7985 7962 7919 7892 7866 7853 7810 7771 7759 7752 7726 7710 7696 7682 7679 7661 7637 7592 7558 7538 7503 7492 7487 7482 7458 7430 7403 7395 7345 7316 7288 7264 7244 7214 7176 7155 7123 7104 7087 7068 7043 7024 6998 6981 6973 6946 6926 6912 6904 6895 6876 6852 6833 6821 6806 6784 6763 6751 6733 6720 6709 6691 6667 6655
7003 7016 7032 7050 7067 7077 7100 7106 7117 7124 7135 7145 7161 7167 7185 7200 7239 7258 7270 7286 7297 7309 7320 7339 7356 7373 7379 7400 7421 7434 7459 7485 7503 7542 7567 7587 7596 7613 7632 7663 7688 7704 7716 7733 7744 7766 7805 7816 7840 7864 7886 7923 7937 7953 7968 7991 8009 8042 8064 8112 8131 8154 8175 8201 8211 8231 8246 8247 8278 8314 8341 8355 8365 8378 8389 8413 8435 8446 8476 8509 8520 8528 8545 8542 8537 8528 8496 8483 8452 8408 8333 8275 8236 8186 8139 8111 8054 8008 7977 7948 7920 7903 7860 7842 7811 7766 7754 7744 7720 7701 7684 7673 7663 7644 7616 7586 7557 7534 7508 7486 7477 7465 7449 7422 7394 7354 7314 7288 7264 7249 7224 7209 7160 7136 7108 7085 7072 7050 7023 7004 6984 6966 6950 6931 6916 6891 6871 6855 6847 6826 6807 6791 6773 6755 6743 6733 6721 6706 6697 6677 6651 6637
7018 7024 7043 7057 7076 7089 7101 7108 7116 7123 7143 7158 7173 7180 7201 7235 7263 7271 7286 7289 7302 7317 7330 7346 7363 7381 7397 7411 7430 7459 7475 7497 7527 7563 7584 7599 7608 7626 7640 7659 7674 7690 7700 7724 7747 7768 7806 7814 7848 7893 7905 7925 7943 7958 7980 7992 8021 8047 8077 8114 8126 8148 8179 8197 8219 8229 8252 8257 8273 8308 8345 8363 8365 8377 8394 8412 8426 8443 8457 8481 8508 8518 8522 8510 8484 8476 8461 8447 8407 8362 8276 8234 8199 8157 8118 8085 8046 8010 7986 7955 7923 7897 7867 7841 7794 7774 7755 7731 7716 7691 7673 7659 7651 7627 7597 7552 7544 7537 7514 7489 7467 7456 7443 7432 7358 7335 7287 7267 7241 7224 7209 7200 7145 7130 7090 7069 7056 7034 7013 6989 6963 6944 6932 6910 6891 6874 6842 6823 6813 6801 6786 6773 6756 6739 6726 6716 6705 6689 6675 6660 6642 6626
7022 7028 7046 7060 7087 7096 7107 7115 7124 7137 7153 7167 7179 7196 7224 7248 7269 7283 7293 7300 7312 7327 7341 7359 7371 7389 7406 7421 7443 7462 7488 7512 7545 7576 7590 7603 7610 7626 7634 7641 7657 7677 7703 7721 7740 7783 7802 7831 7861 7891 7905 7921 7940 7956 7975 7997 8018 8044 8070 8110 8135 8157 8184 8202 8213 8232 8247 8260 8275 8311 8346 8359 8366 8400 8405 8415 8430 8438 8447 8459 8469 8477 8477 8469 8471 8463 8422 8404 8359 8281 8249 8202 8163 8132 8106 8080 8047 8025 8001 7954 7905 7888 7874 7844 7808 7775 7753 7727 7700 7680 7667 7656 7629 7589 7558 7553 7550 7536 7510 7483 7463 7437 7432 7398 7355 7303 7266 7221 7214 7203 7203 7183 7144 7112 7086 7059 7035 7011 6991 6971 6945 6923 6903 6886 6869 6855 6833 6808 6797 6782 6765 6750 6736 6719 6708 6700 6693 6676 6654 6636 6628 6616
7002 7026 7032 7049 7088 7100 7107 7115 7124 7134 7150 7172 7195 7212 7232 7250 7273 7293 7300 7314 7326 7338 7354 7371 7386 7401 7414 7435 7451 7469 7491 7519 7542 7578 7586 7593 7604 7619 7627 7638 7654 7676 7703 7731 7760 7788 7811 7845 7874 7895 7903 7914 7930 7952 7977 8000 8029 8059 8075 8113 8146 8161 8182 8210 8219 8236 8266 8273 8295 8312 8351 8357 8373 8395 8405 8419 8434 8435 8440 8449 8450 8450 8457 8459 8462 8417 8389 8355 8301 8262 8221 8179 8148 8127 8105 8085 8059 8031 8002 7930 7899 7883 7849 7826 7804 7777 7749 7708 7691 7683 7656 7636 7608 7573 7551 7550 7534 7510 7496 7468 7442 7425 7400 7369 7337 7304 7229 7215 7197 7198 7191 7167 7124 7090 7076 7048 7026 7005 6977 6947 6925 6904 6885 6868 6854 6840 6815 6796 6776 6759 6741 6721 6707 6700 6691 6685 6674 6658 6641 6624 6613 6604
6959 6975 6996 7028 7047 7082 7093 7106 7111 7117 7140 7170 7193 7211 7228 7255 7278 7297 7300 7313 7331 7351 7362 7379 7406 7419 7432 7449 7463 7476 7503 7525 7545 7573 7590 7593 7605 7615 7627 7637 7654 7669 7703 7736 7764 7791 7822 7851 7867 7897 7911 7927 7933 7944 7977 8015 8043 8080 8095 8116 8138 8158 8180 8211 8224 8248 8262 8283 8299 8314 8327 8354 8356 8371 8396 8408 8417 8441 8439 8433 8417 8417 8404 8395 8363 8356 8335 8303 8265 8231 8204 8166 8139 8122 8104 8084 8065 8029 7958 7927 7896 7864 7831 7817 7789 7771 7728 7694 7681 7663 7634 7609 7571 7562 7545 7535 7520 7498 7480 7456 7426 7400 7373 7342 7307 7255 7224 7203 7207 7203 7185 7136 7100 7089 7071 7038 7013 6995 6970 6926 6915 6904 6882 6855 6836 6814 6792 6765 6746 6738 6726 6699 6685 6681 6674 6661 6655 6643 6630 6617 6601 6588
6919 6941 6960 6992 7027 7044 7069 7091 7098 7103 7115 7139 7169 7189 7209 7228 7258 7282 7301 7308 7328 7347 7360 7384 7402 7415 7426 7452 7464 7482 7505 7529 7545 7563 7580 7587 7606 7615 7624 7637 7646 7667 7702 7742 7745 7790 7816 7849 7871 7899 7909 7926 7931 7942 7976 8017 8041 8076 8093 8111 8134 8151 8167 8190 8214 8244 8265 8291 8301 8312 8320 8323 8339 8359 8369 8378 8415 8417 8409 8410 8371 8349 8337 8333 8302 8308 8295 8271 8248 8224 8186 8163 8136 8118 8103 8089 8062 7975 7944 7915 7899 7846 7819 7783 7774 7741 7719 7685 7656 7635 7610 7585 7574 7547 7545 7521 7507 7475 7459 7445 7395 7367 7349 7324 7275 7240 7208 7208 7200 7198 7158 7114 7093 7078 7048 7028 6999 6969 6944 6924 6908 6888 6869 6850 6826 6803 6783 6756 6729 6711 6700 6682 6665 6656 6650 6646 6640 6631 6620 6604 6589 6575
6892 6912 6940 6966 6978 7013 7039 7062 7077 7089 7100 7122 7150 7167 7181 7203 7234 7256 7276 7293 7322 7329 7345 7357 7390 7402 7412 7432 7453 7467 7478 7508 7526 7546 7563 7573 7591 7601 7624 7629 7629 7654 7695 7742 7752 7787 7813 7836 7874 7896 7899 7924 7924 7945 7978 8018 8038 8056 8071 8099 8116 8134 8154 8183 8202 8237 8260 8281 8298 8302 8305 8308 8322 8330 8334 8336 8345 8345 8328 8320 8306 8300 8286 8285 8273 8277 8273 8267 8242 8219 8191 8170 8141 8129 8112 8088 8024 7968 7926 7903 7879 7831 7790 7767 7749 7729 7706 7657 7633 7610 7587 7574 7565 7541 7521 7508 7483 7464 7450 7439 7372 7368 7347 7303 7271 7229 7207 7209 7190 7165 7123 7103 7081 7063 7046 7012 6998 6970 6949 6913 6888 6879 6877 6849 6823 6793 6769 6750 6721 6695 6676 6657 6644 6637 6632 6629 6621 6611 6603 6592 6579 6563
6865 6882 6906 6928 6968 6980 6995 7036 7056 7072 7087 7099 7115 7147 7152 7166 7195 7229 7254 7276 7299 7315 7327 7339 7356 7373 7384 7395 7424 7444 7462 7475 7496 7515 7537 7557 7578 7594 7614 7616 7628 7651 7693 7735 7764 7793 7819 7833 7857 7880 7892 7912 7918 7933 7971 8007 8015 8032 8058 8072 8103 8125 8157 8187 8208 8228 8244 8263 8285 8288 8289 8303 8314 8322 8316 8320 8318 8313 8310 8296 8284 8271 8276 8267 8251 8247 8253 8245 8228 8213 8204 8181 8159 8142 8107 8062 8009 7972 7914 7896 7848 7807 7773 7750 7729 7703 7684 7646 7625 7605 7581 7571 7538 7522 7513 7484 7468 7452 7431 7407 7368 7348 7322 7290 7251 7225 7208 7190 7163 7134 7115 7096 7069 7053 7044 7015 6993 6960 6952 6892 6888 6863 6841 6814 6785 6766 6750 6735 6710 6678 6653 6637 6625 6616 6616 6609 6598 6588 6579 6571 6562 6546
6820 6835 6869 6900 6928 6946 6969 6995 7015 7034 7059 7084 7093 7118 7134 7151 7169 7194 7232 7255 7273 7283 7294 7308 7311 7322 7354 7367 7389 7417 7437 7453 7464 7487 7510 7530 7559 7578 7593 7612 7630 7661 7686 7728 7758 7789 7801 7827 7837 7857 7888 7904 7913 7926 7958 7985 8010 8021 8043 8070 8092 8116 8161 8187 8208 8221 8233 8238 8253 8266 8280 8284 8296 8309 8307 8299 8291 8285 8291 8290 8275 8246 8231 8237 8237 8240 8235 8234 8219 8211 8208 8182 8165 8141 8082 8049 7999 7919 7889 7864 7800 7766 7749 7717 7707 7684 7652 7628 7617 7591 7576 7542 7515 7506 7485 7464 7449 7427 7409 7397 7355 7328 7292 7272 7239 7218 7202 7184 7154 7127 7108 7089 7059 7042 7033 7013 6979 6949 6916 6885 6858 6845 6817 6790 6764 6743 6733 6721 6687 6652 6631 6622 6609 6598 6591 6587 6576 6568 6563 6552 6538 6528
6792 6801 6823 6862 6890 6913 6936 6963 6990 7011 7034 7044 7074 7092 7117 7121 7146 7153 7184 7220 7237 7262 7258 7262 7274 7293 7317 7353 7363 7382 7406 7438 7445 7467 7487 7496 7517 7561 7590 7605 7627 7655 7682 7709 7756 7777 7783 7808 7826 7842 7880 7911 7919 7926 7948 7977 8003 8024 8049 8073 8094 8116 8153 8178 8201 8214 8225 8226 8234 8255 8270 8274 8285 8288 8284 8283 8282 8281 8288 8267 8247 8225 8190 8190 8212 8219 8222 8215 8212 8204 8194 8176 8165 8103 8052 8012 7936 7903 7857 7811 7771 7750 7715 7700 7675 7658 7632 7612 7598 7577 7557 7529 7513 7481 7461 7441 7415 7411 7394 7353 7328 7301 7272 7243 7220 7205 7185 7170 7157 7129 7107 7083 7062 7034 7022 7011 6966 6933 6913 6889 6847 6820 6802 6787 6749 6724 6709 6692 6657 6625 6608 6597 6595 6584 6574 6565 6555 6553 6551 6542 6524 6515
6755 6770 6782 6810 6831 6873 6900 6930 6967 6986 7008 7026 7044 7077 7092 7101 7116 7129 7130 7156 7207 7203 7208 7216 7257 7266 7294 7330 7348 7365 7375 7404 7418 7449 7481 7490 7499 7515 7578 7605 7626 7655 7684 7709 7731 7769 7789 7800 7815 7825 7875 7914 7931 7929 7947 7971 7997 8014 8045 8076 8094 8120 8147 8162 8194 8206 8215 8230 8228 8240 8248 8253 8255 8251 8260 8271 8273 8267 8260 8243 8224 8195 8177 8170 8164 8207 8201 8204 8194 8190 8179 8160 8114 8084 8032 7975 7925 7851 7815 7780 7749 7710 7704 7673 7655 7638 7608 7597 7582 7557 7530 7498 7464 7448 7415 7408 7395 7384 7348 7326 7299 7277 7249 7231 7208 7190 7179 7168 7153 7129 7097 7069 7053 7031 7012 6986 6960 6934 6927 6891 6828 6817 6792 6759 6738 6709 6691 6660 6633 6611 6594 6583 6574 6566 6558 6547 6536 6529 6527 6518 6512 6504
6697 6711 6758 6775 6817 6829 6861 6904 6935 6964 6982 7000 7024 7057 7074 7083 7094 7104 7110 7115 7131 7141 7177 7203 7222 7241 7263 7302 7341 7353 7365 7379 7415 7423 7463 7489 7496 7512 7536 7600 7617 7646 7653 7713 7728 7749 7775 7787 7801 7814 7882 7919 7929 7930 7949 7968 7985 8018 8044 8068 8084 8106 8129 8147 8166 8189 8212 8214 8220 8224 8230 8230 8235 8220 8220 8214 8225 8234 8229 8218 8185 8173 8157 8162 8160 8170 8191 8193 8182 8163 8160 8124 8088 8038 7972 7929 7850 7820 7776 7744 7722 7710 7681 7661 7634 7620 7589 7575 7558 7531 7494 7471 7427 7420 7401 7383 7360 7344 7324 7306 7284 7255 7242 7214 7199 7186 7174 7153 7122 7108 7084 7064 7032 7014 6991 6975 6958 6936 6929 6888 6824 6791 6787 6742 6716 6697 6672 6636 6611 6590 6577 6567 6558 6547 6541 6538 6526 6514 6507 6503 6498 6496
6684 6694 6716 6754 6771 6812 6832 6867 6895 6935 6958 6978 6994 7047 7066 7082 7083 7078 7085 7091 7106 7125 7135 7174 7213 7235 7245 7277 7323 7340 7352 7368 7384 7410 7461 7486 7502 7512 7541 7579 7617 7638 7652 7679 7717 7735 7759 7768 7788 7796 7844 7882 7922 7921 7937 7955 7978 8009 8032 8055 8075 8091 8108 8124 8144 8166 8183 8190 8196 8206 8208 8198 8195 8197 8183 8179 8175 8195 8174 8168 8167 8155 8149 8150 8153 8157 8174 8168 8157 8147 8122 8095 8057 8013 7934 7865 7817 7789 7751 7727 7705 7683 7664 7637 7623 7589 7573 7543 7514 7490 7462 7426 7415 7408 7389 7366 7340 7331 7314 7297 7283 7246 7219 7192 7189 7185 7179 7143 7103 7080 7063 7047 7023 7003 6983 6969 6957 6931 6890 6863 6796 6787 6750 6737 6712 6672 6649 6621 6591 6569 6561 6555 6546 6535 6530 6523 6514 6505 6502 6497 6494 6493
6655 6677 6693 6728 6751 6775 6807 6847 6875 6891 6946 6961 6972 6997 7042 7072 7081 7076 7078 7080 7095 7101 7126 7148 7193 7223 7244 7282 7316 7339 7346 7361 7382 7405 7450 7486 7514 7536 7547 7583 7608 7640 7663 7681 7711 7736 7753 7766 7780 7803 7836 7859 7894 7915 7917 7945 7966 7988 8004 8040 8061 8076 8095 8109 8121 8136 8162 8169 8168 8164 8160 8164 8157 8151 8165 8162 8173 8172 8170 8164 8158 8142 8134 8139 8145 8145 8153 8155 8140 8125 8089 8063 8007 7950 7924 7811 7796 7772 7722 7710 7686 7660 7637 7634 7614 7572 7542 7511 7484 7454 7421 7415 7419 7408 7382 7354 7329 7315 7294 7284 7256 7229 7205 7185 7191 7179 7160 7132 7088 7080 7062 7028 6996 6996 6971 6954 6936 6924 6864 6838 6802 6761 6745 6706 6684 6656 6632 6608 6573 6557 6551 6545 6535 6526 6519 6514 6505 6499 6495 6495 6493 6491
6619 6646 6674 6699 6720 6751 6783 6811 6862 6871 6893 6941 6965 6988 7027 7043 7072 7075 7085 7082 7089 7095 7122 7147 7188 7223 7249 7284 7300 7332 7345 7361 7379 7413 7455 7488 7515 7535 7543 7577 7611 7640 7656 7684 7703 7733 7752 7764 7774 7799 7835 7851 7870 7900 7914 7933 7958 7983 8002 8029 8061 8075 8085 8088 8094 8112 8136 8153 8153 8141 8131 8129 8132 8140 8154 8148 8163 8164 8159 8155 8144 8119 8113 8119 8123 8120 8122 8128 8125 8080 8045 8002 7955 7925 7842 7800 7767 7757 7715 7687 7670 7645 7629 7615 7597 7541 7516 7492 7476 7425 7420 7418 7402 7380 7353 7320 7292 7279 7274 7253 7238 7212 7188 7172 7173 7167 7148 7111 7090 7076 7050 7023 6987 6968 6954 6935 6928 6897 6872 6816 6763 6747 6718 6701 6648 6640 6625 6597 6565 6547 6540 6531 6521 6518 6513 6505 6497 6496 6497 6497 6496 6492
6596 6624 6640 6678 6690 6703 6740 6785 6821 6856 6868 6910 6963 6983 7016 7042 7054 7080 7085 7091 7095 7104 7109 7146 7178 7226 7251 7274 7295 7327 7336 7358 7389 7436 7470 7496 7513 7533 7545 7570 7604 7640 7652 7680 7696 7726 7741 7758 7761 7771 7823 7845 7866 7890 7910 7925 7946 7978 7995 8021 8059 8070 8072 8079 8084 8095 8113 8126 8119 8103 8109 8101 8100 8103 8119 8116 8140 8150 8147 8140 8123 8098 8093 8091 8094 8094 8090 8095 8084 8039 8007 7962 7920 7857 7806 7767 7755 7730 7708 7683 7661 7640 7628 7623 7583 7526 7502 7478 7452 7423 7406 7384 7367 7347 7320 7285 7269 7257 7257 7238 7215 7191 7160 7166 7166 7161 7126 7108 7091 7071 7048 7019 6963 6958 6933 6931 6893 6866 6839 6818 6763 6724 6703 6673 6641 6591 6593 6575 6557 6541 6530 6522 6516 6512 6509 6499 6497 6497 6499 6498 6495 6492
6561 6590 6617 6656 6667 6679 6705 6739 6798 6819 6872 6909 6941 6967 7013 7041 7060 7078 7088 7094 7100 7102 7116 7141 7180 7220 7246 7266 7291 7307 7326 7358 7407 7436 7472 7495 7510 7530 7544 7554 7592 7637 7651 7680 7692 7715 7734 7736 7759 7769 7818 7858 7872 7895 7910 7916 7952 7980 8001 8018 8046 8063 8070 8077 8079 8085 8084 8086 8080 8074 8069 8061 8061 8079 8089 8090 8121 8115 8109 8100 8074 8075 8074 8075 8077 8075 8068 8058 8036 8002 7970 7922 7881 7807 7775 7747 7743 7722 7703 7681 7655 7641 7624 7596 7560 7522 7483 7485 7452 7409 7391 7358 7338 7310 7279 7254 7243 7247 7234 7219 7186 7165 7157 7163 7161 7136 7106 7093 7075 7074 7038 7008 6957 6933 6927 6911 6888 6862 6840 6798 6758 6717 6691 6653 6593 6582 6573 6563 6547 6534 6528 6523 6514 6511 6503 6496 6494 6497 6499 6499 6498 6495
6545 6578 6597 6630 6650 6670 6685 6704 6751 6805 6855 6891 6931 6967 7009 7031 7055 7082 7089 7100 7104 7107 7115 7136 7174 7212 7244 7266 7289 7310 7331 7365 7412 7434 7467 7486 7510 7526 7542 7550 7585 7623 7652 7686 7695 7709 7727 7734 7758 7770 7813 7859 7875 7894 7906 7919 7956 7973 7994 8001 8018 8039 8049 8056 8053 8058 8076 8080 8077 8065 8043 8031 8034 8049 8057 8071 8085 8094 8089 8073 8062 8053 8051 8050 8051 8050 8049 8020 8007 7968 7926 7901 7854 7802 7782 7742 7741 7719 7706 7659 7640 7615 7589 7574 7549 7513 7482 7459 7443 7394 7358 7323 7311 7286 7255 7239 7233 7229 7215 7186 7165 7161 7148 7153 7133 7099 7093 7079 7067 7049 7038 7000 6963 6929 6913 6890 6883 6862 6841 6786 6736 6709 6686 6612 6591 6569 6564 6556 6544 6533 6524 6522 6517 6511 6502 6495 6495 6497 6502 6501 6498 6495
6535 6560 6577 6590 6642 6646 6663 6691 6734 6796 6834 6872 6936 6966 6997 7021 7041 7060 7078 7098 7097 7119 7138 7160 7184 7220 7247 7271 7295 7316 7344 7376 7400 7417 7443 7468 7489 7523 7546 7563 7596 7622 7647 7686 7712 7726 7735 7752 7765 7765 7819 7840 7866 7889 7901 7925 7958 7959 7982 7990 8004 8011 8025 8034 8034 8039 8052 8079 8072 8044 8034 8019 8018 8027 8039 8042 8061 8068 8066 8059 8046 8037 8031 8024 8027 8029 8024 8000 7967 7943 7921 7887 7841 7825 7790 7775 7743 7718 7694 7643 7612 7592 7594 7557 7532 7513 7465 7442 7416 7358 7328 7292 7285 7264 7235 7227 7221 7210 7205 7180 7169 7149 7140 7123 7108 7095 7078 7070 7050 7033 7039 7008 6959 6937 6918 6890 6855 6849 6844 6782 6725 6694 6665 6588 6575 6573 6551 6551 6540 6531 6524 6517 6513 6507 6504 6500 6499 6501 6502 6502 6496 6491
6501 6547 6555 6576 6610 6644 6654 6666 6716 6771 6815 6867 6915 6945 6966 6999 7027 7046 7071 7077 7099 7123 7143 7157 7183 7216 7231 7265 7285 7306 7350 7374 7392 7403 7429 7456 7486 7517 7558 7572 7595 7625 7643 7676 7708 7719 7735 7751 7764 7774 7792 7824 7836 7869 7896 7923 7938 7960 7970 7983 7990 7987 8000 8005 8012 8020 8026 8020 8027 8027 8005 7995 8002 8009 8013 8023 8033 8045 8043 8037 8018 8003 7994 7985 7991 7991 7987 7974 7950 7917 7902 7869 7838 7824 7805 7772 7746 7715 7671 7638 7601 7588 7566 7531 7513 7478 7455 7426 7393 7327 7297 7286 7260 7245 7228 7217 7212 7202 7179 7166 7157 7139 7119 7113 7076 7062 7061 7048 7040 7034 7010 6983 6953 6918 6900 6863 6847 6841 6813 6764 6713 6680 6654 6583 6567 6566 6547 6543 6537 6527 6518 6512 6508 6507 6505 6503 6502 6501 6500 6498 6495 6491
6497 6525 6548 6569 6588 6618 6636 6663 6717 6765 6811 6853 6907 6912 6960 6984 7016 7036 7042 7077 7100 7130 7146 7165 7182 7208 7234 7259 7280 7301 7309 7358 7390 7403 7418 7444 7484 7518 7555 7584 7609 7619 7632 7659 7681 7702 7729 7752 7763 7766 7796 7817 7837 7864 7885 7924 7940 7958 7964 7963 7964 7967 7972 7987 7983 7997 7998 7998 7997 7995 7991 7980 7986 7988 7994 8012 8011 8016 8013 8002 7982 7969 7958 7948 7947 7937 7942 7924 7911 7898 7875 7849 7826 7815 7808 7776 7744 7715 7663 7617 7596 7572 7549 7521 7495 7456 7425 7396 7349 7314 7285 7264 7242 7231 7214 7202 7187 7176 7164 7158 7142 7112 7100 7082 7052 7042 7045 7030 7011 7010 6987 6964 6929 6897 6862 6849 6827 6810 6781 6746 6703 6666 6617 6594 6579 6561 6548 6538 6532 6522 6513 6507 6505 6504 6504 6503 6502 6500 6498 6497 6496 6495
6500 6523 6545 6561 6585 6604 6632 6659 6713 6764 6794 6839 6875 6909 6936 6969 6993 7019 7046 7076 7103 7130 7157 7175 7195 7217 7237 7259 7280 7293 7299 7358 7389 7403 7416 7433 7484 7521 7548 7584 7609 7624 7634 7648 7666 7692 7703 7728 7753 7758 7788 7821 7835 7854 7874 7900 7918 7952 7959 7951 7948 7944 7951 7965 7976 7983 7984 7986 7986 7984 7975 7970 7964 7968 7984 7978 7977 7976 7972 7961 7952 7940 7936 7934 7920 7919 7913 7892 7884 7857 7838 7822 7815 7802 7777 7758 7732 7688 7665 7624 7566 7550 7526 7494 7458 7438 7392 7362 7332 7307 7282 7259 7242 7226 7201 7180 7157 7141 7131 7126 7103 7098 7073 7047 7031 7019 7013 7008 7000 6989 6970 6940 6917 6872 6857 6834 6816 6778 6751 6726 6682 6654 6611 6589 6586 6566 6547 6536 6529 6520 6514 6511 6509 6508 6503 6502 6504 6502 6501 6499 6496 6495
6508 6532 6550 6564 6591 6609 6627 6656 6697 6744 6790 6824 6858 6879 6934 6958 6994 7012 7052 7089 7117 7144 7169 7195 7215 7224 7238 7258 7274 7282 7306 7341 7381 7403 7419 7427 7455 7508 7537 7571 7593 7611 7617 7636 7645 7667 7690 7705 7730 7749 7791 7817 7840 7849 7867 7884 7901 7915 7948 7942 7945 7951 7945 7955 7965 7972 7973 7973 7978 7969 7964 7963 7953 7960 7953 7952 7955 7955 7953 7945 7928 7911 7905 7901 7897 7903 7896 7874 7844 7828 7819 7801 7790 7770 7766 7726 7687 7658 7638 7615 7570 7529 7497 7465 7443 7392 7376 7346 7322 7296 7261 7251 7239 7220 7184 7162 7131 7095 7089 7088 7078 7069 7046 7023 6997 6994 6991 6999 6990 6973 6949 6924 6897 6870 6863 6831 6789 6755 6726 6699 6683 6652 6599 6584 6578 6557 6546 6532 6525 6519 6513 6509 6512 6512 6508 6505 6507 6505 6501 6497 6492 6488
6527 6538 6562 6574 6594 6608 6629 6654 6695 6742 6777 6800 6848 6869 6908 6954 6985 7006 7055 7083 7113 7152 7196 7211 7218 7230 7242 7249 7271 7282 7316 7337 7381 7391 7415 7413 7431 7468 7528 7559 7573 7598 7603 7620 7633 7643 7677 7702 7699 7746 7773 7819 7843 7855 7861 7873 7874 7900 7911 7923 7937 7940 7932 7935 7953 7968 7962 7958 7956 7955 7955 7945 7949 7950 7945 7943 7945 7946 7941 7929 7911 7896 7886 7881 7880 7876 7854 7845 7824 7821 7808 7795 7770 7761 7740 7691 7674 7646 7634 7611 7554 7514 7479 7445 7413 7391 7343 7317 7302 7280 7263 7253 7236 7203 7178 7133 7093 7083 7057 7056 7048 7036 7025 7001 6972 6972 6981 6986 6979 6949 6931 6910 6884 6864 6842 6797 6760 6742 6709 6680 6655 6639 6603 6582 6563 6557 6544 6532 6524 6526 6523 6517 6514 6516 6512 6509 6507 6503 6498 6492 6486 6483
6538 6551 6565 6589 6597 6615 6626 6653 6683 6725 6750 6801 6826 6856 6911 6950 6985 7020 7040 7080 7092 7153 7202 7212 7227 7236 7252 7257 7256 7280 7319 7341 7361 7381 7383 7410 7419 7435 7503 7524 7554 7576 7591 7607 7629 7636 7641 7676 7704 7742 7780 7821 7835 7848 7853 7859 7865 7872 7897 7904 7927 7931 7927 7925 7931 7945 7947 7948 7937 7932 7933 7936 7941 7948 7950 7939 7933 7922 7904 7885 7873 7863 7859 7862 7866 7851 7834 7819 7812 7809 7793 7784 7758 7734 7696 7669 7645 7630 7606 7585 7538 7496 7458 7420 7384 7369 7329 7307 7289 7265 7257 7241 7214 7173 7145 7106 7082 7061 7049 7032 7024 7025 6994 6973 6965 6963 6963 6964 6947 6935 6906 6892 6862 6847 6808 6778 6745 6718 6691 6664 6639 6622 6609 6591 6575 6557 6554 6542 6529 6536 6541 6533 6527 6523 6518 6509 6507 6505 6497 6489 6482 6478
6559 6565 6573 6584 6610 6620 6641 6646 6687 6721 6751 6789 6823 6858 6907 6953 6987 7020 7034 7061 7094 7129 7209 7214 7226 7227 7245 7257 7261 7276 7291 7325 7342 7363 7377 7389 7409 7423 7434 7497 7523 7582 7585 7597 7614 7627 7636 7668 7726 7743 7783 7800 7827 7837 7835 7834 7839 7858 7873 7893 7916 7925 7915 7911 7922 7930 7929 7925 7927 7920 7920 7920 7934 7941 7943 7940 7925 7897 7875 7866 7861 7855 7850 7850 7848 7821 7805 7802 7788 7780 7783 7760 7734 7691 7665 7651 7630 7614 7591 7555 7507 7484 7441 7404 7381 7346 7317 7295 7266 7244 7236 7207 7179 7143 7117 7094 7077 7055 7029 7021 7012 7000 6977 6960 6939 6924 6929 6933 6921 6903 6890 6863 6820 6800 6780 6758 6731 6702 6675 6648 6631 6623 6615 6594 6576 6559 6551 6549 6548 6545 6545 6540 6537 6534 6528 6521 6514 6511 6502 6490 6485 6477
6569 6575 6577 6592 6618 6620 6651 6673 6686 6721 6754 6789 6829 6864 6911 6928 6963 7018 7044 7065 7098 7127 7157 7220 7220 7227 7234 7251 7251 7271 7283 7298 7325 7332 7340 7376 7393 7406 7435 7453 7491 7567 7581 7583 7600 7627 7643 7661 7721 7743 7765 7786 7795 7807 7813 7818 7834 7836 7853 7876 7894 7920 7913 7903 7907 7916 7924 7926 7927 7924 7920 7926 7925 7923 7927 7920 7896 7871 7859 7857 7851 7847 7844 7836 7828 7807 7795 7783 7768 7761 7757 7724 7690 7663 7655 7632 7618 7600 7552 7517 7481 7443 7415 7392 7364 7320 7295 7269 7246 7233 7211 7181 7150 7122 7107 7095 7074 7051 7025 7013 7001 6978 6963 6932 6924 6917 6908 6900 6900 6893 6855 6809 6780 6766 6752 6728 6706 6685 6666 6643 6624 6618 6601 6584 6571 6560 6555 6556 6554 6552 6548 6551 6550 6547 6542 6533 6525 6516 6502 6497 6493 6487
6581 6583 6587 6604 6615 6624 6665 6680 6704 6736 6761 6792 6820 6860 6898 6931 6969 7005 7037 7060 7066 7093 7139 7170 7220 7219 7227 7235 7244 7256 7275 7290 7298 7323 7333 7339 7385 7407 7413 7459 7472 7526 7561 7583 7597 7617 7638 7651 7688 7732 7752 7768 7776 7799 7805 7818 7823 7835 7856 7867 7889 7896 7900 7901 7895 7900 7917 7926 7927 7934 7925 7916 7907 7902 7898 7886 7860 7847 7845 7849 7846 7844 7834 7822 7807 7788 7775 7762 7748 7735 7720 7691 7664 7643 7638 7619 7599 7588 7533 7478 7470 7429 7403 7376 7332 7300 7269 7244 7227 7212 7196 7145 7120 7112 7106 7093 7077 7053 7021 7007 6994 6977 6956 6935 6917 6905 6892 6886 6871 6854 6810 6783 6765 6760 6735 6702 6687 6682 6650 6629 6617 6604 6590 6574 6567 6562 6563 6565 6565 6559 6557 6561 6558 6553 6549 6545 6535 6526 6513 6500 6498 6495
6583 6591 6602 6603 6620 6645 6679 6710 6723 6753 6771 6787 6812 6838 6895 6925 6950 6998 7024 7049 7062 7087 7123 7146 7171 7199 7220 7231 7236 7244 7259 7274 7303 7317 7324 7340 7358 7400 7403 7447 7465 7513 7557 7570 7596 7610 7623 7639 7664 7724 7744 7756 7765 7776 7801 7814 7827 7834 7852 7868 7879 7888 7887 7884 7890 7898 7911 7918 7930 7929 7926 7903 7895 7885 7873 7865 7841 7823 7821 7826 7830 7833 7829 7789 7775 7759 7736 7731 7718 7706 7684 7664 7632 7621 7617 7598 7586 7545 7507 7467 7467 7422 7388 7352 7333 7273 7252 7234 7212 7196 7178 7137 7121 7103 7101 7089 7076 7058 7019 7003 6993 6982 6961 6938 6915 6895 6883 6868 6854 6832 6802 6766 6761 6749 6716 6693 6687 6679 6652 6628 6599 6587 6574 6576 6574 6575 6571 6572 6569 6565 6560 6566 6563 6560 6557 6555 6551 6541 6534 6528 6523 6517
6592 6604 6603 6608 6632 6669 6708 6725 6737 6752 6774 6795 6814 6845 6897 6928 6956 6990 7020 7042 7055 7089 7107 7128 7167 7201 7214 7228 7230 7241 7256 7275 7297 7322 7321 7346 7365 7385 7398 7408 7442 7481 7556 7556 7585 7602 7618 7633 7648 7676 7719 7738 7752 7770 7800 7818 7830 7839 7846 7862 7874 7880 7885 7890 7893 7897 7907 7909 7920 7922 7918 7898 7884 7877 7861 7840 7829 7816 7811 7817 7811 7809 7791 7751 7745 7740 7722 7718 7711 7683 7652 7635 7614 7608 7588 7586 7564 7529 7491 7466 7449 7405 7374 7348 7296 7278 7254 7232 7208 7185 7162 7133 7107 7093 7093 7086 7073 7045 7026 7010 6993 6982 6962 6937 6903 6884 6869 6859 6836 6815 6797 6773 6759 6731 6715 6691 6688 6666 6639 6607 6592 6587 6577 6576 6577 6580 6577 6575 6569 6565 6561 6570 6568 6566 6569 6568 6564 6556 6548 6543 6539 6533
6594 6604 6619 6611 6645 6680 6719 6728 6738 6760 6790 6808 6828 6852 6890 6923 6956 6977 7015 7029 7050 7070 7088 7134 7153 7179 7207 7231 7236 7241 7265 7283 7304 7319 7331 7354 7371 7386 7392 7406 7425 7479 7519 7552 7581 7604 7617 7631 7643 7670 7710 7737 7755 7774 7797 7814 7835 7846 7839 7850 7871 7881 7891 7896 7895 7900 7906 7905 7908 7912 7903 7889 7872 7862 7846 7822 7814 7805 7795 7796 7795 7777 7750 7737 7735 7712 7695 7685 7677 7656 7632 7610 7584 7586 7571 7563 7543 7520 7487 7460 7421 7391 7366 7303 7287 7256 7237 7223 7205 7176 7152 7126 7106 7091 7088 7073 7056 7026 7017 7003 6988 6971 6958 6942 6903 6880 6867 6848 6827 6813 6797 6758 6743 6721 6704 6692 6685 6667 6626 6601 6590 6582 6574 6575 6576 6578 6577 6576 6573 6574 6579 6579 6584 6573 6573 6574 6572 6564 6561 6557 6550 6544
6596 6620 6614 6621 6656 6691 6728 6740 6751 6773 6794 6802 6835 6852 6885 6911 6946 6973 7016 7023 7039 7071 7095 7115 7147 7153 7186 7208 7229 7243 7260 7282 7291 7318 7328 7349 7369 7381 7389 7407 7432 7473 7522 7547 7580 7606 7626 7636 7645 7670 7705 7740 7753 7772 7770 7809 7835 7833 7839 7852 7872 7872 7882 7888 7891 7898 7899 7899 7896 7897 7888 7881 7870 7855 7839 7821 7801 7787 7776 7769 7767 7750 7735 7728 7715 7698 7682 7680 7654 7631 7604 7575 7561 7552 7552 7538 7513 7490 7470 7435 7403 7378 7351 7302 7272 7248 7222 7211 7192 7171 7152 7139 7110 7089 7069 7053 7034 7016 7007 6984 6963 6960 6941 6916 6908 6867 6853 6840 6810 6797 6778 6751 6729 6716 6700 6688 6673 6651 6618 6601 6591 6584 6579 6578 6578 6575 6576 6576 6580 6582 6595 6601 6591 6587 6584 6581 6574 6568 6563 6562 6558 6554
6609 6615 6625 6646 6672 6703 6730 6737 6759 6791 6796 6805 6835 6856 6879 6897 6928 6968 7014 7025 7046 7068 7090 7108 7122 7146 7162 7180 7210 7225 7241 7255 7281 7300 7317 7342 7354 7367 7381 7401 7439 7475 7525 7556 7583 7608 7627 7643 7650 7690 7725 7749 7770 7773 7777 7808 7824 7831 7836 7851 7867 7871 7882 7885 7883 7878 7876 7875 7877 7878 7878 7875 7865 7852 7835 7816 7794 7779 7762 7748 7735 7727 7721 7719 7703 7689 7688 7659 7636 7610 7579 7567 7556 7545 7533 7513 7490 7472 7450 7425 7395 7370 7309 7288 7248 7229 7215 7192 7178 7163 7152 7133 7107 7077 7068 7030 7023 7011 6994 6962 6927 6912 6909 6901 6878 6862 6842 6811 6801 6784 6773 6742 6723 6714 6693 6683 6656 6634 6606 6602 6592 6587 6583 6583 6585 6584 6580 6578 6582 6589 6591 6594 6596 6594 6590 6584 6575 6570 6568 6567 6562 6560
6617 6629 6643 6672 6690 6723 6733 6741 6757 6794 6803 6810 6832 6864 6884 6886 6926 6975 7009 7025 7043 7075 7079 7098 7111 7125 7153 7168 7182 7212 7218 7233 7250 7285 7306 7327 7341 7358 7382 7398 7415 7436 7486 7559 7582 7611 7631 7654 7672 7702 7737 7761 7774 7774 7789 7807 7829 7834 7847 7853 7862 7874 7876 7878 7876 7870 7865 7858 7857 7868 7869 7864 7857 7851 7832 7806 7794 7772 7752 7732 7714 7709 7712 7689 7684 7681 7665 7630 7610 7586 7566 7551 7543 7534 7521 7503 7481 7452 7425 7401 7367 7328 7285 7259 7226 7217 7202 7184 7162 7146 7143 7119 7080 7070 7027 7021 7010 6997 6956 6931 6911 6902 6891 6873 6860 6839 6815 6788 6779 6773 6751 6739 6719 6697 6686 6673 6647 6627 6612 6599 6594 6590 6588 6591 6591 6587 6584 6583 6587 6592 6597 6603 6601 6598 6594 6581 6572 6573 6587 6585 6576 6566
6628 6645 6645 6676 6695 6717 6727 6742 6764 6790 6805 6821 6837 6858 6872 6880 6933 6967 6989 7003 7034 7064 7074 7085 7108 7118 7127 7158 7176 7189 7211 7216 7244 7276 7294 7306 7335 7358 7380 7399 7416 7442 7487 7533 7569 7590 7635 7654 7679 7706 7744 7775 7782 7788 7812 7831 7829 7852 7855 7857 7862 7868 7871 7872 7874 7868 7860 7855 7857 7854 7849 7850 7850 7846 7831 7805 7785 7765 7739 7720 7704 7692 7682 7674 7668 7660 7630 7610 7580 7571 7564 7539 7528 7520 7512 7479 7454 7430 7409 7382 7353 7289 7272 7238 7218 7207 7192 7175 7153 7141 7130 7098 7069 7036 7023 7009 6992 6964 6943 6923 6899 6888 6871 6852 6844 6813 6784 6772 6756 6741 6735 6716 6691 6685 6669 6655 6640 6626 6613 6609 6605 6601 6601 6601 6603 6597 6593 6589 6594 6597 6603 6608 6601 6599 6595 6589 6573 6569 6583 6594 6577 6572
6630 6649 6654 6686 6698 6718 6729 6748 6761 6788 6817 6823 6834 6853 6867 6883 6910 6966 6977 7008 7022 7033 7057 7072 7101 7110 7118 7132 7150 7190 7191 7219 7241 7261 7288 7310 7332 7362 7387 7399 7411 7428 7478 7527 7554 7570 7614 7642 7682 7721 7735 7777 7778 7808 7836 7847 7858 7859 7865 7865 7863 7867 7864 7863 7859 7857 7858 7856 7853 7845 7838 7835 7840 7830 7822 7795 7769 7750 7726 7705 7693 7676 7668 7664 7650 7630 7614 7590 7576 7564 7549 7536 7527 7514 7478 7457 7434 7417 7386 7357 7340 7284 7260 7227 7207 7192 7177 7172 7156 7132 7119 7083 7042 7022 7005 6985 6966 6947 6917 6907 6895 6882 6852 6834 6812 6784 6761 6741 6723 6717 6710 6697 6683 6668 6657 6641 6636 6625 6615 6613 6613 6612 6612 6609 6607 6604 6603 6608 6610 6610 6608 6608 6606 6602 6599 6595 6588 6579 6579 6583 6579 6575
6619 6644 6664 6679 6695 6716 6737 6764 6777 6811 6819 6832 6846 6847 6857 6874 6908 6941 6977 7001 7010 7029 7049 7074 7078 7095 7101 7119 7128 7153 7191 7210 7228 7243 7282 7312 7364 7383 7396 7405 7408 7428 7478 7515 7544 7570 7609 7640 7684 7718 7723 7745 7783 7820 7849 7872 7876 7878 7875 7871 7868 7865 7866 7859 7853 7860 7858 7856 7849 7842 7835 7830 7825 7816 7807 7779 7756 7732 7702 7689 7672 7667 7658 7641 7630 7616 7601 7584 7572 7552 7534 7523 7508 7485 7461 7438 7422 7389 7355 7340 7311 7285 7254 7220 7190 7175 7165 7158 7157 7134 7103 7064 7041 7014 6998 6961 6942 6916 6905 6889 6881 6854 6837 6817 6781 6762 6735 6713 6713 6704 6690 6680 6666 6654 6646 6639 6631 6628 6621 6624 6627 6623 6621 6618 6614 6615 6619 6617 6617 6611 6607 6607 6606 6606 6606 6602 6595 6591 6593 6594 6584 6579
6609 6639 6666 6671 6683 6710 6743 6772 6783 6816 6834 6843 6853 6854 6867 6885 6901 6939 6974 7008 7016 7029 7047 7071 7080 7083 7091 7106 7117 7137 7175 7197 7224 7234 7267 7308 7358 7391 7403 7402 7406 7426 7476 7516 7550 7575 7609 7646 7677 7695 7720 7743 7790 7836 7876 7882 7886 7885 7883 7880 7876 7868 7868 7867 7865 7860 7856 7854 7853 7846 7835 7829 7822 7809 7795 7770 7742 7718 7695 7674 7669 7662 7645 7636 7622 7616 7590 7582 7558 7533 7528 7502 7484 7476 7445 7429 7396 7364 7342 7322 7297 7276 7252 7213 7195 7168 7160 7156 7141 7130 7082 7049 7026 7001 6980 6940 6919 6909 6907 6887 6862 6841 6815 6791 6756 6735 6719 6708 6699 6687 6673 6666 6652 6638 6634 6629 6629 6631 6632 6635 6637 6633 6629 6623 6626 6626 6623 6619 6613 6604 6609 6614 6620 6622 6614 6607 6598 6592 6596 6597 6589 6579
6584 6604 6639 6669 6681 6707 6736 6768 6803 6824 6857 6885 6881 6874 6875 6882 6907 6925 6977 7011 7021 7039 7048 7058 7064 7070 7072 7095 7108 7126 7175 7186 7214 7223 7264 7304 7362 7391 7403 7407 7410 7426 7483 7524 7554 7586 7611 7643 7660 7676 7715 7741 7792 7834 7884 7886 7891 7886 7888 7888 7887 7881 7874 7868 7862 7858 7854 7853 7856 7848 7836 7829 7819 7810 7790 7764 7742 7723 7702 7681 7672 7663 7648 7632 7623 7611 7588 7570 7552 7531 7509 7492 7479 7470 7438 7406 7369 7348 7327 7305 7290 7280 7257 7229 7192 7165 7150 7137 7122 7092 7062 7036 7012 6988 6970 6933 6915 6913 6896 6871 6844 6812 6797 6771 6751 6725 6713 6700 6688 6681 6671 6652 6646 6637 6634 6640 6635 6639 6639 6641 6640 6638 6636 6631 6631 6628 6625 6614 6608 6605 6608 6619 6619 6627 6619 6610 6605 6600 6596 6595 6588 6582
6533 6592 6619 6649 6675 6700 6735 6786 6808 6869 6898 6891 6891 6886 6895 6902 6916 6929 6992 7022 7037 7051 7054 7048 7050 7050 7069 7077 7082 7118 7149 7188 7214 7217 7265 7303 7342 7375 7398 7412 7421 7448 7499 7527 7544 7592 7619 7635 7660 7682 7720 7758 7791 7843 7884 7898 7905 7900 7897 7896 7893 7885 7880 7874 7866 7859 7857 7855 7858 7847 7840 7829 7821 7814 7795 7770 7745 7728 7713 7689 7679 7671 7657 7643 7627 7609 7587 7571 7558 7526 7512 7476 7473 7459 7419 7383 7365 7346 7328 7302 7289 7277 7259 7225 7200 7171 7144 7123 7104 7073 7055 7035 7013 6987 6956 6929 6925 6902 6868 6851 6821 6798 6767 6758 6734 6724 6709 6700 6690 6674 6660 6648 6642 6639 6640 6642 6639 6643 6646 6643 6640 6636 6636 6640 6637 6628 6627 6615 6614 6615 6619 6626 6622 6622 6617 6609 6607 6604 6601 6598 6596 6589
6510 6551 6595 6628 6664 6701 6747 6813 6872 6916 6919 6917 6922 6916 6909 6917 6928 6953 7017 7054 7057 7047 7047 7040 7036 7042 7041 7065 7070 7085 7152 7194 7217 7241 7284 7305 7339 7367 7396 7420 7449 7481 7508 7541 7557 7604 7615 7630 7660 7685 7727 7780 7803 7863 7881 7910 7916 7912 7907 7902 7896 7890 7886 7882 7875 7868 7864 7863 7860 7850 7846 7839 7825 7819 7805 7766 7753 7735 7718 7706 7692 7680 7666 7657 7634 7618 7588 7573 7552 7526 7503 7468 7462 7430 7394 7377 7365 7345 7329 7301 7291 7287 7253 7222 7196 7170 7145 7120 7090 7070 7049 7037 7020 6992 6961 6935 6912 6884 6838 6826 6804 6784 6765 6743 6721 6713 6703 6693 6682 6673 6665 6657 6650 6647 6652 6652 6654 6652 6647 6642 6641 6634 6635 6633 6631 6629 6619 6621 6621 6618 6619 6623 6621 6613 6610 6608 6606 6603 6600 6598 6597 6594
6515 6541 6575 6612 6657 6713 6775 6860 6922 6940 6963 6957 6962 6937 6928 6932 6953 6987 7059 7065 7062 7048 7039 7027 7026 7034 7040 7036 7067 7088 7129 7196 7241 7260 7290 7309 7338 7366 7389 7427 7462 7487 7512 7547 7584 7619 7634 7650 7669 7717 7752 7800 7827 7869 7899 7916 7920 7920 7913 7909 7900 7897 7895 7895 7890 7885 7880 7876 7867 7857 7855 7848 7834 7826 7814 7790 7768 7755 7729 7719 7709 7691 7685 7672 7658 7616 7597 7566 7560 7531 7491 7462 7448 7427 7404 7384 7360 7337 7322 7306 7297 7281 7241 7216 7190 7168 7135 7107 7080 7065 7051 7045 7021 6994 6956 6930 6906 6882 6838 6827 6810 6784 6767 6744 6722 6711 6698 6692 6681 6676 6669 6660 6655 6653 6650 6652 6658 6654 6648 6645 6639 6631 6626 6627 6629 6628 6617 6614 6618 6615 6616 6619 6621 6614 6611 6610 6606 6599 6595 6594 6592 6589
6522 6546 6580 6617 6669 6729 6817 6925 6935 6969 6985 6989 6987 6973 6962 6969 6985 7037 7074 7072 7067 7050 7025 7027 7025 7031 7035 7043 7069 7103 7136 7201 7254 7267 7285 7313 7342 7366 7394 7431 7461 7494 7516 7563 7616 7636 7649 7673 7709 7742 7772 7793 7832 7883 7897 7916 7921 7920 7922 7916 7915 7910 7910 7904 7901 7900 7896 7888 7875 7867 7860 7859 7851 7830 7826 7814 7793 7773 7753 7740 7718 7716 7691 7680 7656 7647 7609 7567 7535 7512 7482 7469 7448 7427 7409 7387 7361 7335 7317 7302 7292 7263 7232 7200 7182 7163 7136 7106 7083 7061 7049 7043 7017 6979 6954 6934 6906 6886 6864 6845 6822 6787 6784 6752 6736 6712 6702 6697 6692 6681 6674 6662 6660 6660 6665 6660 6660 6657 6645 6635 6631 6629 6627 6623 6622 6621 6619 6619 6620 6618 6618 6623 6623 6615 6613 6612 6607 6600 6593 6592 6591 6588
6519 6545 6575 6612 6681 6751 6815 6911 6975 6998 7009 7006 6998 6979 6974 7007 7043 7081 7076 7078 7054 7037 7023 7017 7017 7028 7034 7058 7064 7096 7147 7190 7256 7259 7280 7321 7344 7365 7390 7428 7472 7501 7546 7589 7617 7648 7670 7709 7728 7758 7792 7820 7847 7890 7898 7920 7922 7924 7927 7926 7925 7920 7922 7920 7921 7921 7911 7898 7890 7888 7887 7881 7860 7849 7834 7820 7821 7800 7765 7754 7733 7720 7709 7681 7678 7659 7623 7562 7538 7526 7500 7465 7448 7432 7414 7385 7362 7346 7325 7304 7288 7257 7231 7206 7186 7164 7139 7110 7086 7059 7044 7031 7002 6985 6961 6938 6909 6887 6866 6846 6826 6803 6790 6758 6738 6722 6707 6699 6695 6689 6680 6674 6672 6672 6666 6662 6657 6652 6645 6632 6632 6626 6629 6626 6620 6617 6614 6615 6614 6615 6619 6636 6628 6620 6615 6611 6612 6607 6600 6594 6590 6587
6512 6519 6573 6606 6708 6753 6878 6950 6995 7007 7013 7018 7001 7006 7034 7107 7105 7090 7089 7084 7047 7018 7000 7001 7018 7031 7033 7065 7092 7125 7155 7192 7238 7278 7294 7320 7350 7375 7410 7458 7486 7551 7569 7600 7614 7642 7673 7722 7738 7763 7790 7825 7856 7901 7906 7920 7926 7922 7924 7926 7926 7933 7932 7929 7936 7924 7918 7907 7904 7903 7897 7890 7877 7862 7835 7824 7816 7807 7778 7761 7747 7722 7715 7695 7680 7657 7626 7591 7536 7532 7503 7470 7450 7429 7407 7386 7363 7341 7328 7296 7280 7258 7234 7201 7176 7155 7133 7110 7090 7065 7047 7027 6998 6981 6963 6940 6917 6893 6872 6847 6822 6810 6794 6772 6747 6731 6721 6710 6696 6699 6692 6684 6679 6672 6666 6660 6654 6645 6643 6639 6638 6630 6629 6626 6622 6615 6616 6618 6617 6618 6624 6627 6626 6622 6618 6614 6613 6614 6609 6601 6593 6591
6509 6512 6573 6652 6745 6829 6877 6952 7004 7007 7020 7026 7045 7059 7113 7108 7111 7106 7098 7079 7045 7006 6994 7000 7013 7037 7064 7091 7127 7157 7176 7219 7239 7294 7326 7342 7352 7387 7422 7452 7499 7544 7565 7574 7596 7615 7671 7723 7736 7759 7790 7813 7850 7900 7919 7928 7927 7926 7923 7923 7928 7930 7935 7934 7932 7933 7916 7913 7912 7909 7902 7897 7876 7859 7843 7832 7822 7808 7793 7780 7751 7739 7713 7691 7677 7666 7648 7605 7556 7523 7501 7477 7456 7433 7415 7394 7368 7345 7324 7303 7282 7258 7232 7200 7168 7148 7126 7106 7086 7063 7046 7020 6997 6981 6963 6944 6928 6910 6875 6852 6824 6816 6799 6777 6758 6739 6730 6709 6707 6702 6695 6687 6676 6666 6663 6655 6650 6643 6641 6640 6642 6644 6641 6635 6629 6626 6630 6632 6634 6634 6632 6626 6623 6622 6621 6618 6617 6618 6614 6606 6596 6596
6517 6565 6614 6694 6775 6828 6890 6944 6999 7007 7016 7037 7063 7099 7114 7140 7146 7122 7108 7084 7036 6997 6991 6987 7028 7058 7097 7137 7180 7178 7197 7233 7274 7300 7325 7344 7364 7396 7434 7462 7498 7524 7551 7568 7570 7593 7645 7725 7737 7754 7776 7812 7861 7897 7922 7924 7935 7929 7924 7917 7930 7941 7944 7942 7939 7933 7924 7917 7912 7910 7901 7896 7874 7862 7850 7840 7822 7814 7797 7785 7751 7737 7712 7695 7679 7668 7644 7615 7573 7530 7497 7474 7453 7431 7415 7400 7370 7344 7327 7308 7282 7254 7222 7193 7168 7144 7122 7100 7079 7061 7041 7018 6997 6984 6964 6948 6935 6909 6880 6851 6832 6820 6804 6779 6761 6752 6735 6723 6712 6701 6693 6680 6669 6661 6653 6650 6648 6638 6642 6647 6654 6656 6654 6648 6641 6642 6645 6644 6645 6645 6644 6637 6629 6626 6627 6627 6625 6624 6619 6611 6605 6603
6563 6602 6650 6705 6776 6838 6898 6940 6970 7000 7015 7044 7064 7095 7145 7141 7139 7137 7104 7093 7020 7003 6988 6984 7038 7078 7133 7179 7180 7202 7221 7236 7276 7306 7329 7356 7380 7422 7453 7467 7500 7522 7553 7568 7574 7591 7649 7702 7736 7756 7774 7816 7864 7898 7930 7929 7931 7926 7920 7925 7927 7943 7946 7946 7944 7935 7922 7914 7901 7903 7902 7889 7872 7861 7853 7843 7818 7798 7782 7768 7749 7718 7704 7690 7681 7680 7642 7622 7577 7527 7506 7483 7459 7437 7416 7399 7357 7338 7327 7315 7287 7244 7206 7189 7163 7144 7126 7102 7079 7060 7038 7018 6999 6984 6963 6945 6932 6912 6889 6864 6845 6823 6808 6788 6772 6764 6747 6727 6709 6698 6687 6671 6664 6658 6649 6641 6641 6642 6644 6655 6659 6660 6659 6655 6650 6647 6646 6645 6648 6653 6644 6649 6642 6638 6639 6635 6632 6630 6625 6620 6620 6626
6601 6635 6665 6724 6787 6848 6899 6920 6974 6978 7008 7014 7067 7097 7140 7144 7146 7123 7094 7062 7026 7001 6988 6988 7033 7086 7145 7179 7201 7219 7240 7257 7282 7311 7342 7360 7397 7446 7463 7472 7502 7538 7575 7574 7591 7608 7642 7704 7736 7761 7784 7818 7871 7920 7927 7934 7930 7926 7920 7925 7931 7945 7953 7958 7944 7939 7923 7896 7898 7895 7889 7877 7863 7851 7839 7823 7778 7774 7761 7753 7725 7702 7697 7689 7681 7683 7637 7582 7567 7528 7512 7484 7467 7442 7420 7390 7359 7338 7323 7309 7285 7247 7209 7189 7164 7147 7128 7102 7081 7064 7041 7019 6999 6983 6964 6946 6928 6916 6900 6882 6857 6828 6810 6794 6779 6767 6754 6730 6705 6692 6683 6670 6662 6652 6649 6643 6645 6649 6654 6655 6661 6660 6658 6664 6667 6665 6661 6658 6654 6650 6652 6652 6649 6647 6647 6645 6639 6637 6635 6640 6647 6652
6636 6658 6702 6746 6826 6852 6885 6894 6897 6976 6980 7015 7052 7102 7117 7139 7134 7112 7083 7042 7011 7001 6994 6997 7038 7097 7148 7185 7212 7246 7253 7285 7293 7325 7357 7376 7417 7440 7470 7487 7521 7554 7577 7596 7610 7629 7682 7724 7753 7775 7798 7830 7868 7927 7934 7931 7932 7924 7920 7927 7937 7945 7952 7945 7939 7928 7913 7901 7892 7887 7873 7856 7842 7829 7805 7784 7764 7738 7730 7728 7701 7686 7681 7676 7683 7636 7610 7577 7538 7515 7495 7485 7461 7437 7413 7390 7367 7345 7326 7301 7286 7250 7211 7189 7174 7157 7129 7106 7086 7067 7043 7018 7003 6985 6970 6954 6935 6920 6910 6891 6872 6843 6814 6805 6791 6771 6755 6730 6708 6696 6688 6677 6669 6661 6657 6655 6654 6659 6665 6662 6662 6666 6668 6674 6683 6682 6678 6672 6666 6663 6662 6655 6656 6656 6654 6653 6650 6647 6646 6655 6662 6668
6668 6694 6745 6774 6822 6832 6852 6879 6897 6900 6956 6987 7030 7093 7115 7133 7124 7103 7073 7041 7009 7001 6993 7015 7032 7095 7141 7191 7211 7246 7270 7288 7320 7341 7365 7383 7433 7456 7490 7512 7546 7578 7595 7606 7628 7671 7716 7739 7755 7781 7808 7826 7869 7908 7925 7934 7932 7929 7917 7918 7928 7933 7938 7941 7929 7921 7910 7902 7892 7877 7859 7839 7822 7811 7791 7766 7743 7718 7707 7712 7695 7676 7667 7652 7636 7611 7588 7558 7515 7493 7478 7462 7440 7419 7400 7385 7369 7350 7322 7303 7281 7250 7207 7187 7181 7156 7128 7107 7090 7065 7039 7020 7005 6993 6974 6960 6942 6928 6911 6891 6877 6860 6828 6809 6795 6781 6761 6738 6723 6711 6703 6696 6688 6681 6673 6667 6665 6667 6670 6667 6665 6671 6683 6690 6691 6696 6692 6680 6676 6677 6672 6663 6667 6667 6664 6659 6655 6655 6662 6670 6674 6680
6739 6758 6776 6796 6817 6819 6833 6844 6874 6889 6907 6961 6998 7059 7111 7134 7128 7105 7074 7042 7016 7008 7003 7014 7043 7089 7148 7178 7213 7259 7277 7303 7324 7349 7370 7412 7446 7488 7509 7538 7579 7601 7612 7625 7661 7706 7735 7746 7763 7783 7804 7820 7859 7901 7921 7932 7927 7918 7916 7918 7914 7912 7934 7928 7927 7926 7915 7902 7883 7872 7849 7818 7806 7790 7768 7749 7723 7708 7699 7690 7685 7660 7653 7640 7614 7596 7568 7531 7499 7480 7459 7440 7423 7402 7388 7378 7364 7339 7320 7306 7274 7244 7210 7192 7177 7158 7129 7105 7095 7074 7048 7030 7009 6996 6980 6968 6955 6937 6925 6908 6888 6868 6842 6825 6802 6781 6763 6749 6730 6720 6714 6706 6697 6699 6695 6688 6682 6676 6675 6675 6672 6686 6692 6697 6700 6689 6685 6693 6683 6682 6678 6687 6682 6678 6673 6670 6667 6668 6680 6685 6687 6690
6774 6780 6794 6813 6815 6808 6815 6835 6837 6868 6896 6931 6992 7057 7100 7124 7124 7103 7074 7045 7020 7011 7010 7022 7055 7091 7141 7188 7235 7253 7284 7308 7341 7350 7381 7427 7480 7490 7519 7557 7585 7615 7624 7637 7686 7729 7753 7768 7779 7793 7812 7835 7857 7894 7919 7924 7925 7923 7916 7910 7911 7915 7919 7920 7919 7919 7912 7902 7885 7851 7829 7809 7789 7781 7764 7745 7718 7696 7693 7684 7665 7649 7639 7617 7592 7579 7556 7526 7496 7471 7447 7431 7407 7395 7381 7371 7358 7332 7312 7292 7264 7237 7215 7193 7174 7157 7134 7120 7112 7092 7071 7048 7025 7009 6994 6984 6973 6955 6939 6922 6888 6867 6848 6832 6809 6802 6778 6767 6744 6735 6729 6716 6712 6712 6716 6709 6700 6693 6689 6687 6687 6690 6694 6690 6694 6693 6690 6687 6681 6682 6676 6698 6686 6678 6677 6678 6678 6683 6692 6697 6699 6704
6809 6812 6813 6814 6803 6805 6819 6828 6832 6863 6894 6937 6945 7058 7107 7123 7128 7111 7066 7046 7044 7024 7024 7049 7089 7111 7135 7199 7248 7269 7293 7331 7347 7374 7409 7459 7492 7503 7522 7564 7583 7620 7637 7661 7702 7739 7756 7767 7785 7807 7826 7845 7857 7889 7915 7925 7921 7923 7919 7918 7912 7916 7919 7917 7916 7916 7906 7899 7875 7854 7831 7812 7794 7776 7761 7744 7721 7698 7687 7681 7667 7644 7628 7609 7590 7576 7544 7519 7493 7470 7446 7425 7405 7385 7374 7361 7351 7326 7305 7284 7263 7241 7216 7196 7174 7158 7144 7129 7123 7111 7093 7071 7049 7034 7014 7002 6982 6968 6953 6933 6901 6872 6860 6846 6825 6810 6795 6785 6765 6751 6741 6737 6733 6731 6728 6720 6715 6706 6697 6687 6684 6685 6692 6691 6694 6698 6694 6692 6692 6688 6687 6696 6688 6683 6682 6683 6687 6695 6702 6709 6716 6721
6829 6825 6833 6817 6814 6814 6813 6813 6854 6861 6894 6934 6945 7105 7126 7138 7128 7117 7085 7059 7053 7051 7051 7065 7099 7139 7176 7204 7254 7283 7320 7341 7358 7404 7444 7469 7507 7527 7544 7567 7600 7617 7665 7671 7715 7740 7749 7774 7808 7827 7852 7860 7873 7892 7910 7919 7918 7932 7933 7922 7917 7919 7920 7914 7909 7915 7905 7895 7874 7858 7840 7819 7803 7782 7762 7750 7727 7707 7692 7676 7665 7649 7629 7608 7582 7563 7537 7520 7495 7477 7449 7427 7407 7385 7371 7358 7342 7322 7304 7282 7260 7243 7221 7203 7184 7170 7159 7141 7132 7128 7113 7084 7069 7051 7035 7017 7007 6985 6960 6932 6905 6886 6863 6848 6837 6814 6808 6792 6782 6766 6758 6749 6748 6737 6733 6730 6719 6710 6709 6692 6690 6688 6688 6685 6691 6697 6699 6692 6694 6696 6694 6694 6692 6692 6694 6695 6699 6705 6713 6722 6728 6733
6862 6857 6857 6841 6826 6820 6818 6831 6858 6891 6939 6943 7060 7106 7143 7146 7149 7121 7108 7082 7071 7064 7062 7102 7122 7148 7189 7216 7284 7295 7345 7360 7394 7442 7473 7506 7520 7542 7571 7585 7598 7635 7673 7709 7725 7737 7749 7785 7826 7854 7866 7875 7882 7901 7912 7922 7927 7936 7935 7934 7930 7927 7915 7920 7915 7921 7914 7893 7870 7860 7846 7833 7802 7780 7760 7752 7736 7719 7699 7682 7669 7651 7634 7610 7588 7569 7546 7519 7494 7473 7452 7433 7408 7389 7375 7357 7343 7332 7318 7309 7271 7254 7232 7225 7199 7184 7173 7157 7142 7133 7124 7096 7068 7068 7057 7037 7025 6994 6965 6941 6912 6900 6879 6849 6833 6817 6809 6802 6793 6780 6774 6763 6756 6754 6742 6736 6724 6713 6702 6699 6694 6689 6688 6690 6691 6693 6699 6704 6697 6702 6709 6697 6699 6701 6703 6707 6713 6721 6729 6733 6735 6737
6893 6896 6875 6864 6850 6855 6849 6846 6882 6926 6975 7057 7098 7135 7178 7171 7166 7148 7127 7105 7077 7078 7101 7110 7125 7161 7195 7279 7290 7328 7363 7389 7440 7457 7482 7520 7545 7555 7575 7587 7624 7659 7709 7726 7730 7745 7768 7778 7841 7867 7871 7881 7897 7912 7919 7927 7937 7938 7939 7939 7940 7941 7934 7937 7930 7920 7920 7904 7887 7869 7853 7840 7811 7777 7762 7752 7744 7727 7704 7690 7678 7662 7638 7605 7585 7576 7565 7538 7518 7476 7447 7420 7407 7393 7376 7361 7351 7340 7329 7302 7283 7271 7252 7239 7224 7204 7193 7178 7166 7144 7136 7117 7102 7073 7064 7044 7023 6989 6969 6937 6920 6908 6884 6843 6831 6820 6807 6801 6797 6788 6778 6772 6764 6755 6753 6739 6726 6723 6715 6710 6703 6700 6699 6697 6692 6699 6704 6709 6709 6704 6705 6717 6718 6714 6713 6716 6722 6728 6735 6743 6748 6751
6945 6941 6908 6873 6877 6885 6881 6889 6921 6968 7002 7074 7132 7182 7178 7186 7174 7159 7142 7132 7101 7102 7113 7128 7138 7178 7235 7282 7318 7341 7389 7440 7452 7459 7518 7527 7544 7562 7579 7598 7630 7671 7711 7734 7756 7766 7782 7826 7860 7880 7887 7895 7912 7917 7924 7937 7944 7941 7944 7936 7943 7960 7957 7953 7945 7930 7924 7914 7891 7874 7858 7836 7812 7784 7776 7767 7759 7738 7717 7696 7682 7658 7638 7618 7598 7578 7568 7546 7513 7483 7451 7424 7409 7396 7379 7368 7350 7346 7338 7316 7305 7287 7281 7264 7246 7221 7214 7191 7176 7161 7141 7123 7108 7086 7064 7041 7021 6992 6968 6944 6928 6910 6886 6847 6838 6826 6814 6803 6800 6792 6782 6779 6765 6757 6750 6741 6735 6728 6723 6721 6712 6715 6709 6706 6705 6704 6712 6719 6723 6720 6703 6739 6732 6728 6728 6728 6734 6739 6747 6754 6759 6763
6978 6984 6937 6920 6902 6896 6904 6921 6969 7016 7068 7135 7129 7175 7187 7185 7189 7168 7167 7157 7151 7138 7136 7144 7182 7220 7252 7299 7331 7386 7406 7447 7454 7491 7533 7537 7539 7556 7575 7600 7627 7664 7715 7749 7770 7782 7792 7820 7877 7890 7902 7908 7914 7923 7939 7961 7969 7973 7956 7956 7955 7974 7973 7968 7970 7945 7936 7924 7902 7885 7861 7842 7827 7811 7791 7781 7771 7742 7731 7716 7702 7676 7651 7624 7599 7577 7568 7546 7503 7485 7464 7444 7425 7408 7389 7374 7364 7345 7339 7327 7316 7303 7309 7280 7262 7243 7224 7220 7181 7156 7136 7134 7113 7083 7059 7044 7019 6998 6973 6953 6932 6924 6896 6874 6847 6835 6827 6816 6804 6796 6789 6781 6770 6754 6749 6746 6744 6736 6733 6728 6725 6718 6713 6714 6714 6717 6719 6726 6725 6732 6742 6746 6740 6737 6742 6744 6747 6754 6759 6765 6771 6777
7020 7021 7020 7020 6985 6940 6940 6977 6999 7070 7120 7129 7165 7180 7198 7195 7199 7193 7196 7190 7185 7188 7177 7180 7223 7250 7288 7328 7371 7388 7411 7443 7452 7491 7531 7531 7546 7558 7579 7612 7629 7677 7721 7754 7774 7789 7798 7824 7881 7902 7914 7916 7925 7944 7960 7989 7995 7986 7978 7978 7982 7996 8000 7994 7975 7968 7960 7943 7918 7896 7872 7851 7833 7816 7804 7792 7779 7759 7730 7720 7699 7680 7651 7625 7602 7579 7567 7539 7510 7492 7471 7455 7439 7419 7400 7386 7370 7366 7347 7333 7325 7319 7316 7305 7283 7260 7243 7218 7178 7158 7143 7128 7113 7087 7063 7043 7025 7009 6987 6975 6955 6920 6907 6889 6865 6848 6843 6820 6812 6807 6800 6790 6777 6767 6758 6752 6747 6743 6741 6736 6737 6735 6727 6736 6740 6736 6744 6754 6755 6748 6753 6757 6752 6748 6750 6753 6758 6765 6769 6775 6785 6790
7057 7083 7102 7098 7092 7030 6993 7005 7039 7084 7108 7134 7160 7191 7231 7235 7235 7230 7235 7233 7202 7201 7205 7221 7254 7287 7313 7350 7371 7398 7411 7427 7455 7500 7535 7549 7561 7572 7589 7615 7641 7682 7725 7749 7771 7780 7797 7826 7869 7914 7922 7928 7938 7948 7984 8022 8018 7997 7987 7986 8008 8010 8014 8003 7996 7976 7969 7953 7931 7902 7877 7849 7835 7821 7807 7795 7787 7769 7736 7716 7693 7677 7650 7628 7607 7581 7566 7538 7509 7496 7481 7472 7453 7427 7420 7402 7385 7369 7368 7346 7331 7334 7327 7316 7312 7273 7251 7219 7183 7170 7155 7136 7108 7088 7069 7051 7036 7021 7004 6982 6961 6937 6918 6907 6890 6867 6849 6835 6826 6820 6813 6803 6794 6783 6774 6763 6750 6752 6747 6740 6750 6752 6749 6758 6762 6756 6759 6768 6768 6764 6768 6772 6774 6771 6772 6772 6772 6773 6773 6781 6792 6798
