ncols        597
nrows        31
xllcorner    997.254583333
yllcorner    16526.8448611
cellsize 30
2876 2880 2887 2894 2900 2904 2906 2904 2906 2911 2914 2915 2917 2918 2919 2922 2922 2925 2930 2934 2936 2938 2941 2947 2951 2953 2957 2962 2968 2971 2972 2973 2977 2981 2981 2983 2984 2984 2985 2987 2991 2995 2994 3000 3003 3001 3003 3010 3017 3022 3027 3028 3027 3030 3032 3034 3034 3035 3035 3031 3024 3026 3029 3029 3028 3031 3037 3042 3044 3048 3046 3046 3046 3048 3050 3053 3053 3053 3052 3054 3056 3062 3067 3070 3073 3078 3083 3091 3100 3105 3112 3117 3119 3121 3125 3128 3133 3139 3142 3147 3151 3154 3159 3162 3164 3166 3168 3181 3188 3197 3205 3209 3210 3205 3202 3199 3198 3199 3205 3209 3209 3210 3215 3217 3224 3233 3237 3240 3245 3252 3258 3263 3267 3270 3270 3272 3275 3277 3278 3280 3281 3278 3275 3275 3277 3281 3282 3279 3272 3268 3273 3276 3279 3282 3284 3284 3286 3292 3297 3296 3296 3303 3307 3315 3324 3331 3338 3341 3336 3335 3340 3353 3363 3368 3367 3364 3360 3355 3350 3340 3335 3333 3336 3340 3343 3347 3356 3366 3373 3380 3379 3382 3388 3386 3381 3376 3362 3358 3363 3370 3377 3371 3363 3364 3365 3361 3361 3366 3357 3356 3362 3368 3367 3362 3368 3376 3378 3382 3384 3383 3382 3387 3393 3396 3398 3394 3396 3401 3405 3409 3410 3411 3416 3417 3413 3415 3420 3422 3420 3415 3413 3417 3417 3418 3420 3412 3405 3404 3407 3413 3419 3426 3434 3442 3444 3444 3445 3448 3451 3453 3460 3459 3461 3466 3469 3474 3478 3478 3478 3481 3484 3491 3497 3501 3504 3510 3518 3524 3530 3530 3531 3533 3534 3538 3544 3549 3552 3557 3565 3575 3578 3580 3582 3583 3583 3587 3592 3598 3604 3598 3594 3588 3582 3581 3589 3601 3607 3609 3614 3619 3624 3631 3640 3643 3646 3647 3647 3641 3637 3634 3631 3629 3629 3627 3625 3625 3624 3622 3621 3620 3623 3631 3633 3642 3652 3659 3661 3666 3671 3668 3662 3665 3667 3670 3677 3680 3682 3685 3687 3690 3693 3696 3702 3707 3708 3710 3712 3713 3717 3723 3724 3719 3716 3714 3713 3710 3702 3693 3691 3691 3690 3697 3703 3703 3700 3698 3700 3703 3700 3704 3705 3704 3705 3705 3707 3710 3711 3706 3705 3700 3695 3693 3694 3694 3693 3694 3699 3701 3702 3700 3701 3703 3708 3712 3709 3709 3711 3712 3711 3710 3703 3697 3700 3705 3711 3719 3725 3730 3735 3742 3748 3750 3751 3752 3759 3768 3772 3777 3779 3780 3784 3790 3797 3799 3797 3804 3811 3815 3818 3822 3825 3829 3833 3832 3829 3831 3835 3837 3837 3836 3838 3839 3838 3840 3841 3840 3840 3843 3846 3846 3845 3842 3842 3843 3844 3844 3843 3839 3836 3838 3837 3831 3835 3839 3837 3834 3832 3825 3822 3829 3825 3819 3812 3806 3800 3795 3793 3788 3784 3780 3773 3768 3763 3758 3754 3751 3745 3739 3735 3730 3725 3726 3726 3722 3721 3725 3722 3716 3714 3707 3702 3699 3696 3696 3696 3689 3686 3684 3685 3690 3696 3700 3698 3697 3700 3700 3701 3702 3699 3696 3698 3703 3704 3708 3709 3709 3706 3707 3708 3708 3708 3709 3706 3707 3705 3699 3697 3696 3696 3698 3701 3694 3688 3689 3685 3683 3683 3683 3680 3678 3678 3677 3675 3676 3683 3684 3678 3675 3679 3682 3686 3688 3687 3687 3686 3681 3674 3667 3661 3659 3654 3649 3648 3643 3639 3637 3630 3627 3623 3622 3620 3616 3613 3613 3612 3613 3614
2878 2882 2887 2894 2899 2904 2909 2911 2913 2919 2919 2916 2919 2920 2922 2925 2928 2930 2932 2934 2935 2942 2948 2953 2957 2959 2959 2964 2973 2976 2976 2977 2982 2986 2986 2984 2985 2988 2992 2990 2992 2995 2998 3002 3005 3005 3006 3009 3017 3026 3032 3034 3033 3034 3036 3037 3037 3037 3038 3036 3032 3029 3030 3033 3030 3031 3039 3044 3046 3047 3049 3048 3048 3048 3051 3056 3058 3058 3058 3058 3060 3065 3072 3075 3078 3082 3086 3092 3100 3106 3114 3122 3123 3125 3131 3137 3140 3142 3146 3150 3155 3162 3169 3168 3170 3172 3176 3185 3195 3205 3215 3221 3222 3220 3221 3221 3213 3205 3209 3216 3218 3221 3226 3229 3228 3232 3235 3240 3249 3256 3261 3267 3272 3275 3279 3281 3279 3279 3282 3286 3289 3285 3280 3277 3278 3287 3291 3289 3280 3275 3282 3285 3283 3285 3290 3292 3294 3303 3304 3301 3301 3306 3313 3318 3325 3333 3340 3341 3340 3339 3343 3353 3361 3367 3368 3363 3361 3359 3355 3346 3340 3339 3338 3343 3346 3351 3360 3369 3378 3384 3383 3383 3390 3385 3373 3371 3369 3367 3370 3373 3374 3369 3362 3367 3370 3368 3368 3375 3377 3369 3373 3377 3376 3370 3373 3379 3384 3387 3386 3386 3387 3392 3397 3401 3402 3402 3403 3407 3411 3413 3413 3414 3422 3427 3425 3424 3426 3427 3430 3429 3425 3425 3420 3417 3420 3418 3411 3406 3406 3412 3420 3429 3436 3444 3452 3450 3451 3456 3457 3462 3466 3466 3465 3473 3477 3480 3487 3489 3489 3490 3493 3499 3506 3512 3514 3519 3525 3529 3533 3538 3544 3544 3544 3547 3551 3551 3557 3568 3575 3581 3588 3592 3591 3588 3592 3600 3603 3605 3608 3607 3597 3597 3589 3587 3598 3608 3613 3615 3619 3626 3632 3639 3647 3650 3650 3651 3653 3655 3653 3654 3646 3644 3647 3643 3637 3636 3637 3638 3634 3632 3641 3643 3643 3647 3656 3665 3671 3674 3680 3685 3677 3672 3674 3680 3685 3691 3692 3693 3695 3696 3696 3699 3702 3705 3708 3712 3717 3720 3724 3729 3730 3727 3722 3717 3714 3714 3710 3702 3699 3700 3705 3709 3709 3708 3703 3703 3705 3707 3710 3713 3713 3709 3708 3708 3712 3712 3711 3711 3710 3708 3704 3701 3702 3704 3701 3704 3709 3711 3710 3705 3705 3712 3718 3721 3718 3717 3718 3716 3715 3716 3711 3704 3702 3704 3713 3724 3729 3731 3737 3745 3752 3754 3757 3760 3766 3773 3779 3786 3786 3785 3788 3793 3799 3801 3802 3807 3814 3816 3818 3822 3827 3832 3835 3835 3834 3836 3842 3845 3844 3839 3840 3842 3842 3845 3849 3847 3844 3846 3850 3852 3850 3846 3845 3848 3852 3847 3847 3847 3845 3844 3844 3841 3838 3839 3839 3837 3833 3828 3830 3831 3827 3821 3816 3811 3804 3797 3794 3791 3787 3783 3780 3778 3770 3761 3761 3760 3754 3749 3745 3738 3734 3735 3734 3729 3725 3725 3725 3724 3723 3717 3709 3710 3705 3702 3699 3695 3691 3689 3690 3695 3701 3702 3700 3700 3702 3704 3703 3705 3704 3700 3703 3706 3708 3712 3714 3713 3709 3710 3712 3711 3709 3710 3711 3711 3707 3700 3696 3699 3697 3698 3700 3697 3692 3690 3691 3685 3684 3684 3682 3684 3685 3684 3683 3684 3686 3689 3685 3684 3684 3686 3688 3689 3689 3690 3688 3683 3678 3672 3667 3663 3660 3655 3653 3649 3644 3639 3632 3627 3623 3622 3624 3619 3615 3614 3616 3620 3619
2879 2883 2887 2891 2895 2900 2908 2912 2914 2917 2917 2914 2918 2924 2927 2930 2934 2936 2936 2937 2938 2943 2951 2955 2962 2964 2966 2968 2973 2978 2979 2981 2985 2991 2990 2987 2987 2990 2994 2994 2993 2995 2998 3005 3009 3009 3010 3012 3015 3023 3030 3034 3034 3037 3039 3040 3040 3039 3040 3043 3041 3035 3032 3031 3032 3035 3040 3043 3047 3050 3053 3053 3052 3051 3052 3056 3060 3062 3062 3062 3063 3069 3075 3080 3082 3085 3089 3094 3099 3106 3114 3122 3126 3127 3131 3138 3142 3145 3148 3152 3157 3163 3168 3170 3172 3177 3184 3189 3198 3207 3219 3229 3231 3230 3236 3229 3224 3219 3221 3225 3225 3226 3230 3233 3227 3224 3233 3242 3249 3257 3265 3273 3279 3281 3286 3289 3282 3280 3286 3293 3295 3292 3287 3283 3284 3295 3296 3294 3293 3287 3284 3288 3285 3290 3295 3297 3301 3308 3312 3309 3307 3310 3316 3321 3325 3332 3340 3345 3347 3347 3350 3355 3361 3365 3366 3365 3361 3359 3360 3358 3352 3347 3344 3345 3349 3354 3361 3369 3383 3396 3394 3393 3394 3388 3375 3371 3375 3375 3377 3378 3376 3374 3374 3375 3375 3374 3372 3378 3380 3377 3378 3382 3383 3376 3375 3383 3389 3395 3393 3391 3393 3400 3404 3406 3407 3407 3410 3415 3418 3420 3422 3423 3428 3437 3442 3436 3429 3425 3429 3434 3434 3430 3430 3428 3427 3420 3415 3413 3414 3415 3420 3430 3437 3446 3455 3456 3457 3462 3466 3471 3476 3478 3482 3487 3487 3488 3492 3496 3496 3498 3502 3505 3510 3518 3525 3528 3530 3530 3535 3543 3552 3559 3559 3559 3562 3567 3569 3573 3582 3588 3594 3597 3599 3599 3600 3607 3609 3613 3615 3608 3601 3600 3601 3599 3602 3612 3620 3624 3627 3631 3636 3644 3651 3656 3659 3658 3655 3656 3659 3661 3658 3657 3658 3655 3648 3646 3645 3646 3645 3646 3650 3652 3654 3658 3665 3674 3682 3685 3687 3690 3691 3687 3687 3696 3701 3700 3701 3704 3706 3706 3705 3705 3707 3708 3711 3715 3722 3726 3731 3737 3737 3736 3731 3725 3720 3717 3713 3710 3708 3705 3710 3715 3713 3710 3708 3710 3713 3713 3712 3714 3714 3714 3714 3715 3717 3719 3721 3721 3715 3713 3711 3711 3711 3712 3711 3712 3715 3719 3720 3716 3715 3718 3722 3726 3728 3724 3724 3724 3722 3724 3720 3712 3706 3705 3712 3727 3731 3734 3740 3748 3756 3761 3763 3766 3773 3778 3782 3788 3793 3796 3799 3803 3806 3808 3810 3815 3819 3820 3822 3825 3828 3833 3836 3839 3841 3843 3847 3851 3852 3847 3847 3853 3851 3854 3855 3854 3852 3852 3854 3857 3858 3852 3851 3856 3856 3853 3851 3851 3851 3849 3848 3847 3845 3842 3845 3847 3841 3839 3838 3834 3830 3827 3820 3814 3810 3803 3798 3798 3794 3789 3785 3782 3775 3768 3765 3764 3761 3755 3754 3749 3746 3742 3739 3735 3728 3722 3728 3730 3729 3724 3719 3717 3715 3710 3707 3700 3694 3691 3693 3700 3705 3706 3705 3704 3707 3710 3709 3710 3710 3709 3708 3711 3712 3717 3719 3717 3714 3716 3719 3719 3715 3715 3716 3716 3711 3704 3701 3700 3699 3698 3699 3698 3695 3694 3692 3688 3686 3687 3686 3687 3690 3689 3691 3692 3693 3691 3690 3693 3693 3692 3692 3691 3690 3692 3692 3687 3682 3681 3674 3666 3662 3660 3657 3652 3645 3640 3635 3631 3630 3629 3627 3625 3624 3622 3617 3617 3616
2879 2885 2890 2891 2893 2898 2905 2910 2913 2915 2917 2913 2921 2929 2932 2934 2937 2939 2941 2943 2946 2950 2952 2956 2962 2966 2969 2970 2973 2979 2984 2985 2987 2990 2992 2991 2990 2992 2996 2996 2995 2996 3000 3009 3015 3014 3014 3015 3017 3023 3029 3032 3034 3037 3041 3040 3040 3042 3045 3046 3045 3042 3037 3032 3034 3039 3042 3045 3049 3054 3057 3057 3056 3054 3055 3058 3062 3066 3068 3069 3070 3073 3080 3084 3085 3088 3094 3099 3101 3108 3117 3123 3127 3131 3136 3140 3142 3145 3149 3153 3162 3166 3167 3172 3176 3179 3184 3191 3199 3212 3230 3239 3233 3234 3239 3240 3237 3236 3238 3239 3236 3237 3240 3238 3238 3241 3245 3250 3256 3259 3266 3274 3282 3288 3289 3290 3288 3281 3286 3295 3298 3297 3292 3287 3287 3292 3298 3297 3301 3300 3297 3295 3293 3296 3306 3306 3308 3315 3319 3319 3318 3320 3324 3331 3335 3338 3343 3345 3347 3348 3350 3356 3362 3366 3367 3365 3361 3359 3360 3362 3361 3357 3353 3353 3352 3356 3361 3369 3385 3401 3401 3400 3405 3403 3389 3380 3378 3379 3379 3379 3380 3378 3380 3379 3378 3377 3376 3377 3377 3375 3380 3385 3383 3378 3377 3385 3394 3401 3406 3402 3406 3410 3411 3412 3414 3415 3417 3420 3423 3426 3429 3429 3433 3441 3448 3449 3437 3425 3426 3432 3438 3443 3445 3443 3434 3427 3427 3423 3424 3424 3423 3427 3435 3444 3453 3458 3461 3466 3474 3483 3488 3490 3494 3498 3498 3497 3501 3504 3506 3507 3509 3514 3519 3526 3535 3539 3537 3537 3541 3551 3562 3566 3570 3568 3569 3576 3577 3579 3586 3592 3594 3597 3603 3606 3608 3611 3614 3619 3623 3622 3615 3616 3614 3606 3606 3612 3622 3631 3635 3637 3640 3647 3655 3661 3666 3666 3663 3662 3666 3668 3662 3663 3664 3665 3664 3660 3658 3654 3657 3654 3656 3658 3663 3669 3678 3687 3694 3694 3692 3693 3697 3700 3701 3706 3711 3712 3714 3714 3713 3712 3714 3718 3722 3723 3723 3726 3734 3736 3738 3740 3741 3741 3738 3734 3729 3723 3717 3715 3712 3709 3711 3715 3715 3715 3716 3715 3715 3716 3717 3717 3716 3718 3722 3720 3720 3721 3724 3725 3721 3716 3718 3721 3720 3719 3721 3723 3725 3728 3729 3727 3726 3724 3725 3729 3732 3731 3731 3731 3729 3728 3726 3717 3712 3710 3715 3725 3735 3741 3746 3755 3763 3768 3774 3779 3780 3781 3784 3795 3798 3803 3805 3808 3813 3815 3818 3822 3824 3824 3827 3831 3835 3838 3842 3845 3846 3846 3849 3853 3853 3851 3853 3856 3858 3859 3860 3859 3857 3856 3855 3858 3861 3863 3864 3866 3863 3858 3860 3858 3858 3859 3858 3857 3857 3854 3858 3859 3854 3850 3847 3842 3838 3833 3826 3819 3818 3811 3808 3807 3800 3793 3791 3787 3780 3776 3772 3769 3763 3757 3754 3755 3754 3750 3743 3743 3737 3733 3734 3734 3733 3732 3724 3720 3716 3714 3713 3706 3697 3694 3694 3702 3707 3710 3713 3715 3715 3714 3714 3713 3717 3719 3717 3715 3718 3722 3722 3721 3720 3722 3724 3723 3720 3718 3718 3717 3713 3711 3711 3707 3701 3698 3696 3696 3696 3696 3694 3689 3692 3694 3691 3690 3690 3690 3690 3692 3693 3692 3692 3697 3700 3700 3700 3700 3697 3694 3696 3692 3687 3686 3681 3671 3664 3660 3659 3654 3646 3643 3640 3637 3635 3636 3634 3631 3628 3626 3622 3618 3617
2878 2884 2892 2895 2896 2902 2909 2913 2915 2918 2919 2919 2922 2932 2935 2934 2937 2939 2945 2951 2954 2953 2955 2959 2963 2967 2971 2973 2978 2983 2986 2989 2989 2992 2994 2994 2995 2996 2998 2999 2997 2997 3000 3009 3016 3018 3018 3019 3021 3025 3031 3033 3034 3038 3040 3040 3040 3044 3047 3049 3050 3048 3045 3040 3039 3041 3043 3045 3049 3056 3060 3061 3061 3061 3061 3062 3064 3070 3073 3074 3076 3081 3085 3088 3093 3098 3102 3106 3106 3112 3119 3124 3128 3133 3139 3144 3147 3152 3154 3157 3166 3170 3170 3175 3182 3182 3186 3191 3200 3216 3232 3241 3242 3241 3251 3251 3246 3248 3251 3252 3249 3244 3245 3246 3245 3250 3256 3261 3263 3264 3268 3276 3284 3289 3290 3293 3293 3287 3288 3296 3296 3297 3300 3290 3288 3291 3294 3295 3298 3303 3305 3305 3310 3314 3314 3312 3315 3322 3324 3325 3325 3325 3330 3335 3339 3341 3344 3346 3345 3343 3346 3353 3361 3365 3366 3366 3364 3363 3361 3364 3363 3362 3362 3360 3355 3356 3364 3373 3395 3402 3402 3403 3407 3407 3397 3380 3381 3386 3386 3385 3383 3383 3381 3379 3376 3378 3378 3379 3376 3376 3380 3386 3389 3386 3384 3389 3398 3406 3409 3412 3415 3418 3419 3420 3424 3422 3420 3422 3425 3430 3434 3434 3435 3447 3453 3448 3439 3435 3434 3437 3444 3449 3451 3455 3448 3443 3440 3434 3431 3431 3427 3425 3435 3446 3454 3460 3467 3475 3482 3488 3495 3499 3504 3507 3508 3508 3510 3511 3513 3517 3521 3527 3532 3536 3542 3548 3548 3549 3553 3563 3567 3571 3575 3577 3579 3584 3590 3588 3594 3595 3594 3596 3602 3610 3613 3616 3618 3622 3627 3631 3632 3632 3628 3620 3614 3624 3631 3638 3641 3644 3650 3657 3662 3667 3673 3672 3674 3678 3675 3674 3679 3680 3670 3667 3673 3678 3678 3669 3662 3662 3666 3672 3678 3680 3686 3695 3700 3702 3702 3701 3705 3708 3713 3717 3720 3722 3727 3729 3725 3719 3721 3727 3737 3738 3734 3736 3741 3744 3746 3746 3746 3746 3745 3742 3738 3731 3724 3718 3714 3711 3714 3717 3717 3719 3721 3721 3722 3723 3724 3723 3724 3727 3729 3729 3727 3723 3725 3727 3725 3723 3726 3728 3728 3728 3729 3731 3733 3734 3733 3733 3731 3732 3734 3734 3736 3736 3734 3738 3736 3735 3733 3728 3720 3715 3717 3728 3738 3744 3747 3753 3762 3771 3780 3790 3791 3788 3792 3802 3804 3804 3807 3812 3817 3820 3823 3827 3830 3832 3834 3839 3844 3848 3847 3850 3850 3849 3851 3853 3853 3856 3858 3860 3864 3864 3863 3860 3858 3860 3863 3865 3866 3867 3868 3868 3867 3866 3866 3863 3861 3866 3866 3866 3865 3864 3863 3862 3859 3857 3853 3850 3844 3837 3832 3829 3826 3821 3814 3809 3801 3796 3796 3792 3788 3785 3780 3776 3772 3764 3764 3763 3759 3755 3750 3746 3749 3748 3744 3736 3735 3735 3731 3725 3720 3716 3714 3711 3706 3702 3702 3705 3710 3712 3716 3723 3720 3717 3716 3719 3721 3722 3722 3721 3724 3725 3724 3725 3725 3725 3725 3725 3723 3720 3721 3720 3716 3715 3714 3711 3706 3700 3695 3697 3700 3701 3698 3696 3700 3703 3698 3694 3696 3694 3692 3694 3697 3698 3698 3701 3702 3702 3703 3703 3699 3697 3696 3694 3689 3685 3683 3674 3667 3664 3662 3659 3653 3649 3650 3648 3641 3640 3639 3638 3637 3633 3632 3630 3623
2881 2883 2890 2895 2897 2902 2910 2914 2916 2921 2925 2927 2929 2935 2940 2940 2940 2944 2947 2955 2959 2959 2960 2962 2964 2967 2973 2977 2982 2987 2987 2989 2990 2992 2995 2996 2997 2999 3004 3005 3003 3002 3006 3011 3014 3019 3021 3023 3024 3028 3033 3037 3041 3045 3046 3045 3042 3046 3051 3055 3059 3058 3053 3044 3041 3045 3048 3049 3053 3060 3064 3064 3066 3066 3066 3067 3069 3072 3075 3078 3080 3083 3087 3093 3100 3105 3108 3111 3112 3114 3121 3124 3127 3134 3141 3146 3150 3155 3159 3161 3167 3176 3175 3181 3187 3189 3189 3192 3197 3213 3233 3243 3252 3258 3264 3264 3261 3260 3264 3263 3258 3253 3252 3256 3258 3259 3262 3267 3268 3268 3270 3280 3289 3293 3294 3296 3300 3297 3298 3296 3292 3295 3304 3304 3301 3306 3307 3300 3304 3313 3313 3314 3319 3322 3321 3319 3324 3330 3328 3329 3331 3330 3331 3333 3337 3341 3346 3349 3348 3347 3349 3353 3359 3364 3368 3369 3368 3367 3366 3366 3365 3363 3362 3366 3362 3366 3370 3378 3392 3399 3399 3401 3409 3410 3401 3390 3388 3392 3393 3393 3385 3383 3382 3381 3382 3384 3385 3384 3377 3376 3383 3389 3395 3398 3396 3395 3398 3404 3410 3412 3417 3421 3424 3426 3430 3432 3429 3426 3427 3435 3442 3447 3451 3454 3458 3452 3441 3440 3442 3447 3460 3463 3460 3458 3452 3445 3442 3436 3436 3442 3441 3438 3440 3450 3459 3465 3476 3485 3489 3493 3499 3505 3510 3515 3515 3516 3518 3519 3526 3531 3533 3537 3542 3543 3545 3550 3552 3558 3565 3569 3573 3578 3586 3588 3589 3593 3595 3596 3597 3602 3605 3604 3607 3612 3616 3620 3625 3627 3631 3637 3640 3640 3639 3634 3630 3633 3638 3643 3648 3651 3659 3665 3670 3673 3675 3678 3681 3682 3681 3682 3688 3686 3679 3672 3673 3683 3687 3681 3675 3674 3681 3687 3693 3697 3699 3705 3708 3713 3716 3716 3713 3715 3719 3722 3725 3728 3734 3737 3731 3727 3726 3730 3737 3742 3741 3743 3749 3754 3756 3754 3752 3748 3746 3744 3739 3738 3737 3728 3720 3717 3721 3728 3725 3719 3722 3727 3731 3734 3734 3732 3733 3738 3735 3733 3732 3729 3729 3731 3732 3733 3736 3736 3733 3734 3737 3739 3740 3740 3740 3740 3740 3741 3744 3743 3742 3741 3740 3740 3743 3743 3743 3737 3729 3725 3725 3732 3740 3746 3750 3755 3765 3771 3780 3789 3795 3798 3801 3808 3809 3812 3816 3820 3824 3828 3830 3833 3835 3839 3841 3843 3848 3852 3853 3854 3856 3857 3859 3858 3857 3861 3864 3865 3866 3868 3868 3866 3862 3863 3867 3871 3872 3871 3871 3869 3874 3872 3870 3870 3872 3873 3874 3873 3873 3870 3872 3866 3863 3863 3862 3857 3851 3844 3839 3832 3830 3826 3821 3814 3805 3800 3800 3799 3792 3787 3782 3779 3776 3773 3772 3769 3764 3757 3756 3752 3751 3752 3752 3746 3733 3732 3730 3726 3722 3718 3714 3711 3710 3709 3705 3708 3712 3714 3718 3723 3725 3723 3720 3724 3724 3724 3725 3726 3728 3731 3732 3730 3732 3731 3732 3732 3728 3725 3724 3723 3719 3717 3713 3707 3706 3701 3699 3701 3704 3705 3703 3698 3702 3703 3701 3700 3700 3698 3694 3698 3704 3704 3704 3705 3705 3704 3705 3703 3701 3699 3696 3694 3690 3685 3681 3677 3671 3672 3668 3664 3658 3655 3654 3653 3647 3641 3639 3636 3636 3637 3638 3636 3630
2885 2885 2888 2892 2895 2899 2907 2911 2915 2921 2927 2931 2936 2939 2944 2949 2953 2952 2952 2955 2958 2960 2961 2966 2970 2969 2973 2979 2983 2986 2987 2988 2990 2992 2995 2997 3000 3003 3008 3012 3008 3007 3009 3012 3017 3023 3027 3028 3028 3032 3037 3041 3046 3050 3052 3052 3050 3052 3055 3058 3062 3062 3058 3052 3047 3049 3052 3055 3057 3062 3065 3066 3068 3071 3070 3070 3074 3077 3078 3082 3086 3088 3092 3098 3103 3108 3113 3116 3118 3121 3125 3126 3130 3137 3143 3149 3153 3159 3164 3166 3170 3178 3186 3189 3194 3195 3194 3194 3207 3223 3238 3250 3259 3266 3270 3267 3268 3265 3263 3261 3260 3266 3269 3273 3280 3278 3275 3274 3277 3278 3277 3280 3292 3297 3298 3303 3306 3305 3304 3300 3294 3294 3307 3314 3316 3322 3322 3316 3315 3318 3315 3316 3322 3325 3325 3324 3327 3332 3331 3332 3336 3337 3334 3334 3340 3345 3348 3350 3355 3359 3356 3357 3360 3364 3368 3371 3371 3369 3368 3368 3369 3368 3366 3370 3376 3379 3378 3385 3396 3401 3403 3404 3408 3412 3412 3404 3398 3395 3396 3396 3390 3385 3387 3390 3392 3393 3393 3383 3377 3378 3386 3392 3394 3398 3404 3398 3397 3402 3409 3414 3418 3421 3425 3429 3434 3436 3437 3436 3438 3441 3447 3453 3456 3458 3462 3458 3451 3450 3451 3457 3466 3470 3470 3466 3459 3445 3437 3440 3444 3448 3453 3448 3447 3453 3461 3467 3478 3490 3493 3496 3500 3504 3512 3519 3522 3523 3524 3528 3531 3536 3540 3547 3552 3553 3555 3558 3560 3567 3572 3575 3582 3586 3587 3590 3592 3596 3600 3605 3609 3612 3613 3613 3614 3616 3619 3624 3629 3633 3639 3643 3646 3646 3645 3644 3639 3640 3641 3648 3654 3662 3670 3674 3677 3679 3680 3686 3691 3694 3691 3690 3691 3691 3687 3684 3681 3683 3689 3688 3692 3699 3701 3702 3704 3707 3709 3715 3719 3722 3724 3724 3721 3724 3729 3730 3731 3733 3737 3739 3735 3735 3736 3738 3745 3748 3749 3752 3758 3765 3765 3760 3757 3753 3748 3746 3743 3740 3740 3737 3731 3731 3739 3737 3733 3730 3730 3736 3741 3740 3738 3738 3740 3742 3739 3736 3738 3737 3735 3734 3737 3741 3745 3745 3743 3743 3744 3747 3749 3748 3746 3747 3746 3746 3748 3748 3748 3750 3748 3746 3748 3750 3750 3746 3739 3737 3737 3737 3744 3750 3756 3764 3772 3778 3782 3787 3797 3802 3807 3811 3814 3820 3825 3827 3832 3836 3836 3837 3838 3841 3846 3850 3852 3856 3857 3858 3862 3865 3865 3865 3867 3870 3871 3871 3870 3872 3872 3871 3871 3871 3871 3875 3873 3873 3875 3875 3875 3876 3877 3878 3879 3880 3878 3879 3877 3876 3875 3871 3868 3869 3869 3864 3857 3850 3844 3837 3832 3829 3825 3820 3815 3810 3806 3801 3798 3794 3788 3782 3778 3775 3772 3768 3765 3762 3763 3762 3757 3756 3756 3752 3743 3737 3736 3733 3726 3720 3720 3718 3716 3713 3709 3709 3714 3718 3722 3725 3727 3727 3725 3726 3728 3731 3734 3732 3732 3733 3735 3735 3736 3736 3737 3735 3729 3728 3728 3727 3723 3722 3716 3708 3706 3707 3705 3706 3707 3708 3706 3702 3701 3702 3702 3702 3701 3699 3699 3703 3706 3708 3707 3708 3710 3710 3709 3708 3707 3705 3698 3692 3690 3686 3681 3678 3676 3676 3672 3666 3662 3659 3658 3658 3649 3646 3646 3640 3634 3634 3640 3639 3638
2885 2885 2887 2890 2897 2901 2905 2910 2917 2923 2927 2933 2938 2941 2944 2950 2954 2952 2952 2958 2962 2964 2965 2969 2973 2974 2976 2981 2984 2987 2989 2991 2992 2994 2997 3001 3004 3006 3009 3011 3012 3012 3014 3016 3021 3028 3032 3034 3037 3040 3045 3049 3051 3054 3055 3055 3058 3062 3062 3064 3069 3070 3066 3063 3061 3056 3055 3057 3059 3061 3064 3066 3071 3076 3080 3079 3082 3084 3084 3084 3089 3093 3098 3103 3107 3113 3119 3122 3125 3126 3129 3133 3136 3141 3144 3148 3155 3163 3167 3171 3173 3180 3187 3192 3198 3201 3202 3201 3207 3227 3241 3252 3261 3269 3275 3276 3275 3274 3270 3271 3275 3281 3286 3289 3293 3294 3288 3283 3286 3289 3288 3287 3291 3299 3305 3307 3308 3309 3311 3307 3302 3300 3305 3314 3317 3321 3322 3326 3325 3324 3322 3322 3321 3323 3326 3326 3330 3333 3333 3335 3338 3338 3340 3343 3346 3348 3350 3351 3358 3364 3363 3363 3366 3367 3372 3374 3372 3370 3369 3370 3371 3373 3372 3375 3382 3383 3384 3394 3406 3407 3408 3409 3413 3413 3413 3414 3411 3404 3400 3403 3401 3396 3396 3398 3398 3395 3391 3386 3380 3381 3390 3394 3395 3399 3404 3404 3402 3404 3410 3416 3420 3423 3427 3431 3434 3436 3438 3441 3443 3441 3442 3447 3453 3458 3461 3461 3454 3454 3457 3464 3471 3475 3477 3476 3469 3452 3441 3443 3446 3450 3456 3457 3452 3454 3460 3467 3478 3489 3496 3502 3506 3512 3518 3522 3530 3532 3533 3535 3540 3545 3547 3550 3560 3564 3567 3572 3570 3573 3580 3587 3592 3595 3591 3589 3597 3603 3608 3614 3618 3618 3617 3620 3624 3627 3631 3634 3637 3640 3642 3646 3650 3652 3653 3648 3645 3645 3646 3650 3659 3667 3673 3682 3685 3687 3691 3696 3701 3707 3706 3704 3706 3700 3696 3696 3697 3696 3698 3701 3705 3709 3711 3713 3716 3717 3717 3721 3727 3731 3736 3738 3737 3738 3743 3744 3742 3739 3740 3741 3743 3747 3751 3753 3753 3754 3757 3757 3764 3770 3771 3767 3763 3760 3756 3755 3755 3750 3749 3744 3742 3743 3744 3746 3740 3739 3742 3745 3746 3745 3743 3743 3742 3746 3747 3751 3752 3749 3744 3740 3742 3747 3753 3758 3754 3750 3749 3751 3754 3755 3754 3753 3756 3755 3757 3755 3753 3755 3756 3752 3752 3754 3756 3753 3750 3746 3740 3740 3747 3759 3767 3770 3777 3782 3785 3793 3801 3807 3812 3814 3815 3823 3827 3831 3836 3839 3841 3842 3844 3847 3853 3856 3859 3862 3863 3863 3865 3868 3869 3872 3874 3875 3875 3874 3874 3876 3880 3880 3876 3874 3879 3882 3881 3880 3881 3883 3881 3881 3883 3885 3885 3886 3887 3885 3883 3882 3884 3878 3875 3873 3870 3865 3859 3854 3850 3846 3839 3833 3827 3821 3816 3813 3809 3801 3801 3799 3794 3788 3783 3779 3773 3768 3767 3766 3771 3769 3762 3757 3755 3753 3748 3741 3744 3742 3731 3726 3723 3722 3723 3721 3714 3713 3719 3724 3729 3731 3731 3732 3732 3729 3728 3732 3734 3735 3736 3738 3738 3737 3735 3737 3738 3736 3731 3730 3731 3731 3726 3724 3721 3713 3712 3714 3712 3710 3710 3712 3710 3703 3701 3702 3703 3703 3706 3708 3706 3708 3711 3712 3711 3710 3710 3712 3713 3713 3713 3712 3703 3695 3692 3687 3683 3681 3678 3677 3671 3665 3664 3664 3663 3660 3656 3655 3656 3651 3640 3639 3644 3643 3641
2886 2885 2888 2891 2899 2901 2904 2911 2917 2922 2929 2935 2940 2944 2944 2950 2953 2954 2956 2960 2966 2970 2971 2971 2975 2979 2981 2984 2987 2989 2992 2994 2995 2996 2998 3001 3003 3006 3013 3020 3020 3021 3023 3026 3026 3027 3033 3041 3044 3047 3051 3052 3055 3058 3060 3061 3063 3064 3064 3064 3071 3072 3070 3069 3069 3065 3059 3060 3060 3061 3063 3066 3070 3077 3083 3086 3087 3091 3090 3090 3093 3096 3100 3105 3109 3117 3121 3124 3128 3130 3134 3137 3139 3142 3147 3150 3156 3162 3167 3172 3177 3184 3191 3197 3204 3205 3208 3207 3212 3227 3240 3250 3260 3268 3277 3281 3280 3277 3279 3282 3288 3295 3297 3297 3303 3307 3304 3301 3299 3296 3297 3300 3293 3301 3306 3309 3309 3311 3314 3315 3317 3318 3316 3318 3320 3319 3323 3331 3335 3331 3329 3327 3325 3328 3332 3332 3332 3334 3334 3335 3337 3338 3340 3344 3347 3348 3351 3354 3360 3362 3361 3363 3368 3372 3376 3377 3372 3371 3375 3378 3375 3374 3375 3379 3385 3390 3391 3405 3407 3407 3408 3412 3417 3418 3418 3422 3423 3411 3406 3408 3408 3403 3399 3398 3400 3398 3390 3396 3399 3397 3396 3398 3399 3402 3406 3407 3408 3409 3412 3417 3421 3425 3429 3434 3434 3437 3441 3447 3445 3439 3438 3443 3456 3464 3466 3465 3458 3456 3462 3470 3474 3478 3482 3481 3477 3462 3447 3443 3447 3451 3456 3462 3455 3455 3459 3469 3481 3487 3496 3505 3513 3520 3524 3527 3533 3539 3539 3542 3547 3553 3555 3556 3561 3564 3567 3572 3573 3575 3589 3592 3594 3598 3600 3599 3604 3612 3618 3623 3625 3625 3627 3631 3636 3640 3643 3645 3648 3649 3650 3653 3658 3661 3660 3659 3655 3655 3651 3655 3665 3672 3675 3681 3690 3691 3697 3703 3709 3714 3715 3716 3719 3716 3710 3708 3710 3706 3704 3707 3714 3719 3719 3722 3726 3726 3728 3733 3737 3742 3745 3748 3753 3761 3757 3753 3749 3745 3745 3746 3752 3759 3762 3766 3765 3765 3765 3765 3766 3772 3775 3772 3769 3766 3764 3762 3759 3754 3750 3746 3747 3750 3747 3751 3753 3751 3747 3745 3743 3746 3750 3750 3749 3750 3751 3753 3756 3754 3751 3747 3748 3753 3757 3760 3760 3758 3757 3757 3761 3764 3765 3768 3768 3766 3764 3764 3761 3765 3765 3760 3760 3761 3763 3761 3757 3758 3751 3745 3753 3765 3773 3776 3779 3784 3793 3799 3804 3809 3814 3817 3820 3824 3829 3832 3838 3842 3846 3848 3851 3854 3857 3860 3861 3864 3867 3869 3871 3873 3875 3877 3878 3878 3880 3879 3877 3879 3883 3883 3880 3877 3880 3887 3890 3892 3891 3891 3891 3892 3892 3893 3893 3893 3892 3891 3890 3891 3890 3885 3880 3879 3873 3867 3862 3857 3854 3853 3847 3837 3832 3829 3822 3817 3812 3807 3804 3803 3798 3790 3785 3788 3780 3774 3771 3770 3771 3771 3763 3758 3753 3753 3750 3744 3742 3743 3738 3729 3722 3722 3724 3722 3716 3713 3720 3728 3732 3734 3736 3738 3740 3737 3732 3732 3734 3735 3739 3742 3744 3742 3740 3740 3740 3739 3737 3732 3733 3733 3728 3726 3724 3720 3716 3714 3714 3713 3713 3712 3709 3705 3703 3705 3707 3708 3713 3716 3712 3712 3713 3713 3713 3716 3715 3712 3713 3714 3714 3713 3707 3699 3697 3693 3689 3686 3681 3677 3675 3672 3667 3666 3664 3661 3661 3663 3660 3655 3649 3643 3645 3646 3644
2888 2889 2890 2894 2898 2900 2905 2913 2918 2923 2929 2933 2938 2941 2946 2951 2954 2956 2959 2963 2969 2972 2972 2974 2979 2982 2984 2987 2989 2991 2994 2996 2998 3000 3001 3001 2999 3002 3015 3022 3026 3027 3029 3032 3035 3033 3038 3045 3049 3053 3054 3054 3057 3063 3063 3063 3065 3065 3067 3069 3071 3073 3071 3070 3070 3066 3064 3065 3067 3068 3068 3069 3074 3080 3088 3093 3094 3093 3094 3098 3103 3106 3107 3109 3115 3121 3122 3124 3129 3134 3138 3144 3144 3148 3151 3154 3159 3162 3166 3174 3180 3187 3194 3204 3212 3215 3215 3215 3217 3223 3237 3250 3259 3265 3272 3277 3277 3278 3282 3284 3291 3299 3304 3305 3307 3313 3317 3313 3309 3305 3302 3303 3305 3307 3310 3313 3318 3313 3312 3314 3320 3325 3326 3324 3323 3322 3327 3341 3344 3340 3335 3331 3331 3336 3341 3342 3341 3343 3344 3343 3340 3338 3340 3343 3349 3347 3352 3359 3365 3365 3363 3363 3370 3376 3377 3378 3378 3380 3388 3392 3384 3373 3376 3381 3387 3391 3394 3398 3403 3409 3413 3417 3422 3424 3425 3427 3426 3417 3409 3410 3412 3406 3398 3398 3401 3400 3396 3397 3406 3406 3402 3407 3405 3403 3405 3407 3409 3410 3414 3418 3420 3424 3430 3435 3437 3438 3443 3450 3447 3438 3443 3451 3458 3466 3471 3471 3467 3468 3471 3475 3479 3483 3488 3487 3479 3470 3460 3456 3452 3455 3461 3465 3464 3461 3463 3469 3479 3488 3497 3505 3515 3524 3529 3532 3539 3547 3550 3551 3552 3554 3559 3561 3563 3564 3568 3570 3574 3586 3593 3595 3598 3601 3609 3610 3612 3617 3621 3626 3631 3632 3635 3640 3644 3647 3648 3649 3653 3655 3656 3659 3667 3670 3667 3669 3671 3670 3665 3662 3667 3674 3678 3685 3692 3698 3704 3711 3718 3723 3728 3725 3727 3724 3720 3718 3716 3716 3713 3716 3726 3730 3731 3731 3732 3734 3738 3742 3746 3749 3753 3756 3760 3763 3764 3762 3758 3755 3758 3759 3762 3765 3767 3771 3773 3771 3771 3769 3773 3777 3778 3775 3773 3775 3773 3769 3763 3759 3754 3750 3751 3752 3751 3749 3757 3756 3748 3744 3745 3751 3755 3753 3752 3755 3753 3753 3756 3755 3754 3754 3755 3759 3761 3763 3765 3769 3768 3768 3770 3773 3776 3777 3777 3773 3775 3778 3774 3771 3772 3769 3765 3769 3770 3768 3766 3767 3762 3754 3758 3768 3775 3778 3783 3789 3796 3802 3806 3811 3817 3824 3827 3832 3834 3837 3842 3846 3849 3854 3857 3862 3866 3866 3866 3868 3872 3874 3875 3875 3878 3880 3881 3882 3883 3886 3888 3890 3894 3890 3889 3887 3885 3888 3893 3895 3896 3895 3897 3896 3894 3895 3896 3897 3897 3895 3898 3898 3898 3893 3888 3884 3879 3872 3866 3861 3857 3856 3850 3844 3839 3835 3829 3821 3816 3811 3809 3807 3804 3797 3792 3791 3786 3779 3780 3776 3775 3771 3766 3761 3756 3754 3754 3749 3744 3743 3743 3736 3729 3726 3725 3723 3716 3714 3721 3730 3734 3736 3740 3744 3747 3748 3743 3739 3742 3745 3745 3746 3746 3745 3743 3740 3739 3740 3738 3736 3736 3737 3734 3729 3730 3729 3725 3718 3714 3716 3715 3713 3709 3709 3710 3708 3709 3712 3716 3718 3716 3710 3713 3715 3715 3719 3719 3717 3717 3719 3717 3714 3708 3703 3699 3695 3692 3688 3684 3682 3681 3680 3673 3669 3664 3659 3659 3662 3658 3652 3657 3652 3650 3648 3645
2897 2897 2898 2902 2901 2901 2906 2912 2920 2926 2930 2932 2935 2939 2944 2950 2955 2959 2961 2963 2968 2973 2975 2979 2984 2985 2988 2990 2992 2994 2996 2999 3001 3004 3006 3007 3004 3009 3019 3024 3029 3033 3035 3037 3040 3041 3045 3051 3054 3057 3058 3058 3060 3063 3064 3065 3068 3070 3071 3073 3076 3076 3074 3072 3072 3072 3067 3066 3071 3076 3076 3077 3082 3087 3091 3096 3099 3097 3100 3105 3107 3109 3112 3116 3122 3128 3132 3133 3134 3138 3142 3148 3152 3156 3160 3164 3164 3166 3170 3177 3183 3189 3198 3203 3209 3219 3223 3223 3223 3228 3237 3248 3255 3261 3269 3270 3271 3276 3283 3288 3293 3301 3307 3312 3315 3319 3317 3313 3309 3310 3315 3313 3311 3310 3313 3318 3323 3320 3313 3316 3322 3327 3327 3327 3326 3328 3337 3345 3346 3345 3345 3341 3337 3340 3345 3347 3347 3350 3353 3355 3348 3342 3342 3344 3348 3350 3352 3361 3366 3369 3371 3374 3377 3379 3378 3377 3383 3392 3399 3403 3390 3379 3381 3385 3388 3391 3396 3399 3405 3412 3416 3419 3423 3430 3435 3434 3434 3421 3415 3414 3414 3411 3404 3401 3405 3405 3398 3398 3403 3405 3407 3412 3416 3410 3408 3410 3413 3415 3418 3419 3421 3426 3432 3436 3439 3443 3446 3450 3451 3448 3449 3457 3461 3467 3472 3474 3475 3478 3482 3482 3482 3489 3494 3493 3485 3476 3475 3477 3473 3466 3465 3468 3473 3471 3469 3472 3479 3488 3500 3503 3507 3520 3528 3534 3542 3547 3551 3559 3560 3560 3563 3566 3569 3573 3576 3578 3585 3595 3598 3600 3606 3613 3617 3617 3617 3619 3625 3630 3633 3637 3642 3646 3649 3652 3653 3652 3656 3660 3663 3667 3673 3676 3673 3673 3676 3676 3671 3668 3670 3674 3682 3691 3696 3704 3710 3717 3720 3725 3733 3736 3732 3731 3728 3724 3723 3728 3729 3727 3731 3735 3737 3738 3740 3744 3747 3751 3755 3759 3764 3770 3769 3768 3769 3769 3767 3767 3771 3772 3769 3768 3769 3774 3777 3776 3778 3782 3786 3789 3784 3777 3780 3782 3778 3774 3771 3769 3768 3765 3761 3766 3755 3753 3758 3758 3751 3747 3751 3760 3762 3758 3758 3761 3759 3756 3757 3759 3756 3760 3764 3766 3768 3768 3770 3774 3775 3773 3777 3779 3781 3781 3783 3784 3785 3788 3784 3779 3780 3776 3773 3774 3774 3774 3773 3770 3767 3760 3763 3769 3773 3779 3786 3792 3798 3804 3811 3815 3820 3825 3831 3837 3842 3844 3846 3849 3853 3858 3863 3867 3870 3873 3874 3877 3882 3882 3882 3883 3884 3883 3885 3886 3887 3894 3896 3896 3896 3897 3899 3897 3895 3891 3895 3902 3904 3903 3902 3901 3900 3901 3901 3902 3901 3903 3905 3905 3901 3897 3893 3890 3884 3876 3871 3865 3860 3857 3853 3848 3847 3841 3832 3825 3820 3815 3811 3810 3807 3802 3794 3795 3790 3789 3789 3785 3778 3777 3777 3768 3760 3759 3760 3760 3757 3751 3744 3740 3735 3732 3730 3729 3726 3725 3728 3734 3738 3740 3743 3747 3751 3753 3751 3749 3752 3753 3750 3750 3749 3748 3745 3741 3740 3745 3744 3737 3737 3740 3739 3736 3733 3731 3730 3724 3718 3721 3718 3716 3714 3714 3715 3716 3715 3715 3719 3719 3717 3714 3713 3717 3719 3722 3723 3723 3723 3723 3722 3717 3710 3704 3701 3694 3693 3692 3687 3684 3682 3680 3675 3671 3666 3663 3662 3662 3657 3655 3659 3660 3655 3656 3649
2901 2901 2902 2904 2903 2902 2905 2910 2917 2926 2930 2932 2937 2943 2950 2954 2959 2965 2966 2963 2966 2972 2975 2979 2984 2986 2989 2992 2995 2997 3000 3002 3004 3007 3008 3012 3015 3018 3020 3025 3031 3037 3041 3042 3041 3042 3050 3053 3057 3061 3062 3063 3064 3065 3064 3066 3071 3073 3073 3073 3075 3079 3078 3076 3076 3077 3071 3068 3074 3081 3086 3087 3088 3090 3092 3097 3099 3101 3106 3111 3112 3114 3113 3118 3126 3133 3138 3141 3143 3145 3147 3152 3158 3164 3170 3172 3171 3174 3180 3185 3186 3190 3200 3206 3211 3218 3225 3230 3234 3233 3240 3244 3249 3258 3266 3268 3268 3273 3283 3292 3298 3303 3308 3316 3320 3319 3318 3315 3310 3314 3320 3320 3316 3314 3317 3327 3329 3322 3317 3319 3323 3325 3325 3326 3330 3332 3339 3345 3343 3344 3348 3352 3350 3347 3348 3350 3351 3356 3359 3357 3353 3347 3346 3348 3351 3354 3356 3361 3366 3370 3374 3376 3378 3379 3377 3380 3384 3390 3396 3400 3397 3391 3391 3391 3393 3396 3399 3403 3407 3414 3421 3425 3428 3436 3440 3441 3437 3428 3418 3416 3418 3415 3412 3412 3411 3409 3407 3404 3403 3408 3408 3412 3416 3417 3416 3414 3415 3415 3416 3417 3419 3427 3434 3438 3442 3448 3451 3450 3452 3453 3454 3459 3465 3470 3473 3475 3477 3487 3493 3490 3488 3493 3499 3499 3499 3487 3483 3485 3482 3473 3470 3473 3477 3478 3478 3485 3488 3492 3496 3498 3502 3511 3525 3534 3539 3542 3552 3562 3567 3569 3570 3572 3575 3581 3584 3587 3593 3595 3598 3603 3611 3617 3620 3621 3623 3627 3633 3637 3639 3641 3648 3649 3653 3655 3657 3659 3663 3667 3669 3672 3680 3680 3679 3681 3681 3679 3676 3673 3677 3679 3684 3693 3700 3708 3719 3726 3727 3728 3734 3739 3742 3742 3738 3734 3735 3739 3740 3736 3734 3739 3745 3750 3753 3753 3755 3760 3768 3769 3773 3782 3786 3785 3783 3784 3783 3774 3777 3777 3775 3772 3774 3781 3785 3786 3785 3786 3789 3791 3790 3789 3789 3789 3788 3786 3779 3777 3775 3775 3779 3778 3769 3765 3767 3765 3759 3755 3756 3762 3765 3765 3763 3766 3763 3760 3763 3765 3767 3768 3769 3771 3777 3776 3775 3779 3779 3780 3783 3786 3788 3790 3790 3790 3788 3788 3786 3785 3787 3790 3791 3788 3783 3779 3776 3775 3775 3773 3768 3770 3776 3783 3790 3796 3803 3810 3818 3822 3825 3828 3834 3841 3847 3850 3851 3854 3858 3861 3865 3869 3875 3879 3881 3884 3889 3890 3889 3894 3897 3895 3897 3895 3895 3899 3903 3898 3897 3899 3904 3907 3907 3902 3899 3901 3905 3905 3905 3906 3906 3907 3908 3908 3907 3906 3908 3907 3902 3899 3895 3892 3888 3880 3873 3867 3862 3860 3857 3853 3847 3840 3834 3830 3826 3823 3816 3813 3810 3805 3800 3797 3797 3796 3800 3795 3784 3780 3777 3770 3763 3765 3772 3769 3767 3763 3755 3746 3742 3739 3736 3735 3733 3733 3736 3740 3743 3745 3748 3753 3756 3759 3754 3753 3756 3756 3753 3752 3750 3748 3747 3744 3743 3748 3750 3746 3741 3741 3741 3741 3735 3732 3731 3728 3727 3730 3729 3728 3723 3724 3720 3721 3723 3721 3720 3721 3722 3722 3720 3724 3725 3726 3726 3725 3724 3723 3724 3719 3711 3705 3700 3697 3695 3695 3692 3684 3684 3679 3676 3670 3666 3666 3664 3662 3662 3662 3665 3662 3660 3661 3661
2899 2900 2902 2905 2906 2902 2905 2910 2917 2925 2931 2934 2938 2944 2954 2957 2960 2965 2967 2966 2969 2975 2976 2977 2983 2987 2990 2994 2996 2998 3001 3003 3005 3006 3009 3013 3017 3019 3019 3024 3033 3038 3042 3043 3044 3045 3049 3056 3060 3065 3065 3065 3067 3069 3069 3071 3075 3077 3077 3079 3079 3081 3082 3082 3080 3078 3075 3071 3078 3086 3093 3094 3095 3097 3097 3099 3105 3106 3110 3113 3115 3117 3120 3124 3132 3137 3143 3147 3152 3155 3157 3159 3163 3171 3176 3177 3179 3183 3186 3190 3192 3196 3203 3210 3215 3220 3227 3237 3245 3244 3243 3245 3248 3259 3268 3272 3274 3277 3284 3293 3300 3302 3303 3315 3318 3318 3320 3320 3320 3321 3324 3323 3321 3320 3322 3328 3332 3327 3324 3324 3324 3325 3327 3331 3334 3336 3338 3341 3342 3342 3345 3348 3350 3349 3352 3356 3359 3363 3368 3365 3358 3351 3352 3355 3357 3358 3360 3366 3369 3370 3372 3373 3375 3378 3378 3381 3386 3387 3392 3395 3399 3404 3405 3402 3405 3409 3406 3401 3405 3412 3421 3429 3433 3437 3445 3445 3442 3435 3425 3419 3419 3418 3418 3421 3421 3415 3417 3417 3418 3418 3415 3414 3418 3419 3421 3421 3418 3417 3416 3415 3417 3421 3430 3440 3445 3453 3455 3454 3453 3454 3457 3462 3470 3473 3478 3482 3486 3492 3498 3500 3496 3495 3501 3505 3507 3503 3497 3491 3486 3478 3476 3479 3483 3484 3490 3497 3497 3499 3498 3498 3502 3509 3522 3535 3541 3544 3551 3562 3565 3568 3573 3579 3582 3584 3589 3592 3592 3596 3600 3606 3614 3619 3622 3623 3628 3634 3638 3643 3644 3650 3654 3657 3662 3666 3667 3667 3671 3674 3676 3680 3685 3686 3687 3694 3694 3688 3687 3688 3688 3687 3691 3695 3699 3712 3721 3727 3730 3735 3740 3743 3746 3751 3750 3750 3747 3747 3746 3745 3745 3746 3754 3757 3760 3762 3765 3769 3774 3779 3783 3790 3797 3797 3796 3798 3799 3796 3791 3786 3782 3781 3784 3788 3790 3790 3790 3792 3797 3800 3801 3796 3796 3794 3794 3792 3787 3780 3780 3780 3784 3782 3776 3775 3779 3779 3773 3764 3760 3764 3767 3767 3770 3771 3768 3766 3768 3770 3773 3773 3774 3776 3778 3779 3783 3787 3790 3788 3790 3793 3797 3798 3798 3795 3790 3792 3794 3793 3795 3797 3797 3793 3789 3786 3782 3780 3782 3778 3772 3773 3778 3785 3794 3802 3808 3816 3821 3825 3830 3836 3842 3849 3853 3854 3854 3859 3863 3867 3871 3874 3877 3881 3886 3890 3894 3896 3896 3899 3903 3904 3905 3904 3902 3905 3906 3905 3906 3906 3907 3909 3911 3912 3906 3905 3907 3910 3911 3912 3912 3909 3909 3910 3911 3912 3912 3911 3908 3904 3899 3894 3891 3886 3880 3874 3867 3864 3862 3855 3852 3844 3840 3838 3837 3835 3830 3822 3817 3810 3807 3804 3802 3801 3799 3798 3795 3788 3780 3774 3776 3774 3775 3774 3769 3765 3759 3750 3747 3746 3742 3740 3738 3737 3738 3743 3747 3751 3755 3759 3762 3765 3763 3756 3757 3758 3756 3754 3754 3755 3754 3752 3748 3747 3752 3751 3745 3742 3742 3741 3738 3736 3734 3731 3730 3732 3732 3732 3730 3729 3726 3725 3726 3727 3723 3724 3727 3728 3730 3734 3733 3729 3729 3728 3725 3722 3721 3718 3714 3707 3701 3700 3699 3697 3693 3687 3683 3682 3678 3672 3666 3668 3668 3670 3670 3669 3667 3664 3663 3664 3666
2896 2897 2898 2901 2904 2905 2908 2915 2920 2926 2931 2933 2937 2943 2950 2956 2959 2963 2967 2970 2974 2978 2981 2984 2989 2991 2994 3001 3002 3002 3002 3004 3005 3006 3008 3015 3019 3020 3021 3028 3035 3039 3041 3045 3048 3048 3049 3057 3064 3067 3067 3067 3070 3074 3076 3077 3081 3082 3082 3083 3083 3083 3085 3085 3083 3080 3076 3077 3083 3089 3097 3103 3105 3102 3099 3100 3107 3112 3115 3117 3118 3124 3128 3135 3139 3142 3148 3154 3160 3164 3164 3164 3168 3176 3181 3182 3184 3186 3189 3193 3199 3203 3209 3214 3219 3225 3231 3239 3246 3249 3253 3253 3253 3258 3266 3272 3277 3279 3285 3291 3299 3303 3304 3306 3311 3317 3320 3322 3324 3326 3325 3324 3322 3320 3321 3325 3332 3335 3336 3329 3326 3328 3331 3334 3336 3336 3337 3342 3343 3343 3344 3345 3346 3347 3353 3360 3363 3367 3372 3372 3366 3359 3355 3357 3358 3358 3363 3367 3369 3369 3370 3371 3374 3380 3381 3384 3388 3391 3393 3395 3398 3402 3406 3413 3416 3411 3406 3405 3406 3413 3417 3425 3431 3439 3444 3443 3439 3436 3431 3424 3421 3422 3420 3421 3423 3424 3424 3423 3423 3426 3420 3418 3418 3420 3423 3425 3427 3428 3428 3426 3426 3427 3434 3441 3446 3453 3455 3458 3458 3459 3461 3465 3471 3478 3484 3488 3492 3497 3501 3504 3503 3501 3504 3510 3513 3512 3508 3505 3496 3485 3481 3485 3490 3495 3500 3503 3503 3505 3511 3515 3520 3523 3526 3539 3547 3552 3558 3562 3563 3567 3575 3583 3592 3593 3595 3597 3598 3601 3606 3612 3620 3627 3626 3630 3638 3640 3643 3648 3651 3657 3662 3664 3667 3671 3674 3677 3681 3685 3688 3689 3692 3692 3696 3701 3704 3703 3702 3702 3696 3697 3702 3703 3707 3714 3719 3724 3728 3732 3740 3749 3754 3759 3761 3760 3756 3754 3756 3756 3757 3758 3759 3761 3764 3768 3773 3776 3782 3787 3792 3799 3802 3801 3802 3805 3809 3805 3798 3794 3791 3792 3794 3793 3791 3791 3791 3800 3805 3808 3810 3810 3808 3802 3796 3795 3788 3788 3788 3788 3790 3790 3786 3782 3787 3790 3784 3775 3772 3772 3771 3771 3777 3779 3775 3773 3773 3774 3776 3778 3780 3783 3786 3785 3787 3792 3795 3795 3795 3799 3803 3805 3804 3805 3803 3805 3807 3806 3805 3805 3798 3792 3791 3790 3788 3788 3788 3783 3775 3775 3781 3791 3801 3809 3815 3819 3823 3829 3836 3841 3846 3851 3854 3856 3861 3867 3870 3872 3875 3878 3881 3883 3890 3896 3897 3897 3901 3905 3908 3908 3909 3910 3910 3910 3910 3911 3918 3918 3913 3915 3917 3915 3915 3916 3916 3916 3919 3919 3918 3917 3915 3916 3918 3921 3919 3917 3914 3910 3904 3897 3893 3888 3884 3881 3875 3870 3865 3857 3853 3851 3850 3848 3844 3840 3837 3831 3824 3819 3817 3813 3804 3801 3803 3802 3798 3793 3787 3783 3782 3777 3773 3771 3773 3768 3760 3753 3750 3750 3747 3746 3741 3741 3743 3746 3751 3755 3760 3762 3762 3768 3765 3762 3759 3757 3757 3758 3759 3760 3758 3757 3754 3752 3753 3754 3751 3746 3744 3740 3740 3740 3738 3734 3734 3735 3733 3731 3730 3728 3730 3728 3729 3732 3733 3730 3730 3730 3732 3737 3735 3731 3731 3731 3730 3725 3719 3716 3718 3709 3702 3702 3702 3700 3696 3693 3688 3685 3684 3678 3672 3672 3675 3678 3677 3671 3670 3669 3670 3671 3671
2900 2899 2900 2901 2902 2912 2920 2923 2926 2930 2934 2935 2937 2942 2948 2955 2959 2963 2968 2973 2979 2983 2986 2993 2995 2995 2999 3005 3010 3010 3008 3008 3011 3013 3013 3017 3022 3024 3024 3028 3034 3038 3044 3050 3051 3050 3052 3056 3063 3069 3070 3072 3077 3079 3079 3080 3084 3088 3089 3089 3088 3085 3085 3086 3087 3082 3077 3082 3089 3095 3102 3108 3112 3110 3102 3102 3110 3117 3120 3124 3128 3132 3135 3139 3145 3148 3154 3162 3166 3166 3168 3169 3171 3175 3180 3186 3186 3187 3190 3195 3202 3207 3211 3217 3222 3229 3236 3243 3248 3253 3259 3265 3264 3263 3265 3272 3278 3281 3284 3285 3287 3299 3305 3306 3308 3315 3320 3321 3323 3327 3329 3329 3325 3320 3321 3325 3333 3341 3341 3333 3324 3332 3335 3332 3333 3336 3340 3345 3348 3347 3349 3348 3349 3351 3355 3360 3364 3367 3371 3375 3371 3365 3360 3357 3354 3352 3358 3364 3367 3369 3370 3369 3372 3378 3380 3385 3390 3392 3395 3393 3393 3399 3407 3414 3416 3405 3402 3410 3413 3417 3421 3425 3430 3439 3445 3444 3442 3437 3433 3429 3426 3424 3423 3424 3425 3427 3427 3424 3421 3421 3419 3417 3419 3424 3430 3430 3432 3434 3437 3439 3439 3435 3439 3443 3449 3454 3459 3464 3469 3472 3473 3474 3479 3485 3492 3495 3497 3503 3508 3511 3510 3510 3512 3514 3516 3519 3518 3513 3505 3495 3490 3493 3496 3501 3505 3506 3509 3515 3520 3528 3534 3534 3535 3540 3550 3560 3561 3561 3564 3569 3579 3585 3592 3598 3600 3601 3603 3606 3612 3618 3621 3626 3632 3637 3642 3644 3646 3654 3659 3667 3673 3675 3674 3675 3679 3683 3690 3694 3696 3699 3702 3706 3710 3710 3708 3711 3713 3711 3706 3705 3709 3713 3715 3718 3718 3721 3724 3730 3739 3749 3757 3766 3771 3764 3760 3759 3760 3761 3762 3764 3769 3772 3771 3776 3781 3784 3787 3792 3799 3803 3813 3812 3808 3811 3812 3810 3805 3801 3800 3800 3799 3801 3799 3800 3804 3808 3812 3812 3814 3814 3815 3809 3803 3800 3798 3799 3798 3795 3794 3795 3793 3791 3791 3792 3791 3786 3785 3784 3781 3781 3782 3782 3781 3778 3777 3779 3781 3783 3784 3787 3789 3791 3794 3798 3800 3801 3806 3809 3810 3814 3816 3815 3816 3818 3815 3813 3813 3813 3807 3800 3794 3795 3797 3796 3795 3788 3780 3780 3785 3796 3804 3811 3819 3823 3826 3835 3842 3846 3849 3851 3855 3859 3865 3873 3875 3877 3879 3882 3885 3887 3891 3900 3899 3898 3907 3915 3913 3912 3915 3917 3917 3917 3917 3919 3922 3923 3920 3921 3925 3921 3921 3923 3923 3921 3923 3925 3924 3927 3928 3926 3928 3926 3924 3921 3920 3916 3912 3903 3897 3892 3889 3886 3882 3876 3870 3865 3859 3855 3855 3851 3845 3841 3841 3837 3828 3824 3822 3818 3812 3804 3804 3808 3805 3798 3787 3785 3783 3779 3776 3774 3774 3774 3767 3761 3756 3754 3751 3750 3749 3746 3748 3751 3755 3759 3762 3763 3766 3770 3769 3766 3766 3763 3760 3759 3760 3761 3760 3759 3758 3753 3754 3754 3752 3750 3747 3742 3742 3743 3744 3741 3738 3738 3734 3732 3731 3731 3733 3735 3730 3735 3736 3734 3736 3736 3733 3734 3734 3730 3733 3735 3732 3727 3722 3719 3717 3712 3703 3702 3702 3703 3703 3701 3697 3692 3686 3685 3684 3678 3679 3679 3675 3671 3671 3673 3674 3676 3676
2903 2903 2905 2907 2913 2918 2921 2923 2927 2930 2935 2938 2941 2945 2950 2953 2959 2963 2968 2975 2982 2986 2991 2995 2997 2999 3004 3007 3010 3012 3015 3017 3017 3017 3017 3021 3026 3029 3028 3031 3034 3038 3047 3057 3058 3056 3054 3057 3061 3066 3070 3073 3078 3084 3084 3086 3089 3090 3091 3092 3092 3090 3087 3086 3088 3085 3083 3087 3093 3100 3106 3111 3116 3118 3110 3110 3116 3121 3123 3127 3132 3137 3139 3144 3149 3155 3162 3167 3172 3174 3172 3172 3173 3176 3179 3183 3186 3188 3193 3199 3205 3210 3215 3219 3224 3231 3240 3250 3258 3263 3266 3272 3276 3273 3269 3272 3278 3282 3285 3286 3288 3296 3303 3308 3313 3316 3318 3319 3319 3326 3331 3331 3329 3326 3324 3331 3343 3347 3346 3339 3335 3336 3338 3335 3334 3339 3343 3348 3349 3349 3352 3355 3360 3364 3359 3361 3366 3371 3378 3381 3377 3374 3367 3361 3353 3351 3355 3361 3366 3370 3371 3367 3367 3377 3382 3389 3394 3395 3395 3395 3392 3398 3406 3412 3415 3410 3407 3414 3418 3416 3424 3430 3436 3442 3445 3447 3449 3448 3441 3437 3434 3428 3427 3427 3427 3426 3426 3424 3419 3417 3416 3414 3416 3424 3429 3429 3432 3434 3436 3442 3439 3440 3444 3445 3446 3451 3459 3468 3475 3482 3485 3489 3492 3494 3498 3500 3502 3507 3513 3517 3516 3513 3514 3518 3524 3529 3532 3527 3517 3505 3498 3498 3498 3500 3505 3508 3515 3521 3524 3529 3535 3540 3543 3547 3557 3562 3563 3564 3567 3575 3586 3588 3590 3600 3602 3603 3608 3613 3620 3626 3627 3628 3635 3641 3645 3649 3654 3659 3666 3672 3677 3684 3684 3684 3685 3690 3695 3699 3702 3702 3709 3713 3717 3718 3717 3717 3720 3721 3714 3710 3716 3721 3721 3720 3720 3723 3725 3734 3744 3751 3759 3768 3775 3775 3773 3774 3770 3767 3770 3774 3777 3780 3782 3785 3786 3788 3793 3801 3807 3812 3818 3822 3821 3821 3824 3822 3814 3810 3806 3805 3805 3809 3813 3811 3812 3816 3818 3818 3818 3817 3816 3814 3813 3805 3802 3804 3802 3801 3800 3798 3797 3796 3796 3794 3795 3793 3793 3792 3790 3789 3788 3785 3787 3785 3784 3786 3787 3786 3786 3788 3793 3795 3800 3804 3807 3810 3814 3815 3816 3819 3824 3825 3825 3824 3821 3819 3820 3817 3812 3813 3812 3805 3802 3802 3799 3794 3791 3793 3800 3803 3808 3815 3823 3828 3831 3837 3844 3848 3851 3856 3860 3865 3870 3877 3882 3884 3886 3887 3889 3890 3894 3900 3905 3908 3912 3915 3919 3921 3926 3927 3925 3924 3926 3928 3928 3927 3922 3924 3928 3929 3929 3930 3930 3927 3928 3927 3928 3931 3935 3936 3935 3932 3930 3927 3926 3920 3914 3907 3899 3895 3894 3891 3885 3881 3876 3873 3868 3863 3860 3855 3845 3842 3843 3839 3833 3828 3825 3826 3826 3825 3816 3810 3808 3802 3793 3788 3790 3786 3783 3782 3778 3776 3775 3771 3766 3762 3758 3756 3755 3751 3751 3756 3761 3764 3766 3768 3774 3778 3777 3773 3773 3771 3765 3759 3760 3761 3760 3761 3759 3754 3754 3755 3754 3752 3748 3746 3747 3750 3751 3749 3745 3742 3738 3735 3739 3737 3737 3737 3737 3737 3737 3738 3739 3740 3735 3733 3734 3734 3736 3738 3737 3730 3727 3724 3722 3716 3712 3710 3709 3706 3706 3705 3702 3697 3690 3688 3686 3681 3679 3679 3675 3675 3678 3678 3678 3680 3682
2907 2908 2909 2912 2914 2919 2920 2921 2925 2931 2938 2942 2945 2948 2950 2955 2961 2966 2971 2978 2983 2985 2989 2995 2999 3002 3007 3013 3016 3013 3015 3019 3020 3018 3019 3023 3028 3032 3034 3035 3039 3042 3052 3059 3060 3058 3056 3058 3063 3067 3073 3075 3079 3084 3086 3088 3090 3090 3093 3095 3091 3092 3092 3089 3086 3086 3087 3092 3095 3104 3110 3114 3116 3120 3121 3116 3118 3125 3130 3132 3136 3142 3147 3150 3154 3158 3165 3169 3175 3180 3179 3177 3178 3178 3181 3185 3187 3192 3197 3202 3207 3212 3216 3223 3227 3234 3244 3255 3263 3269 3273 3276 3281 3279 3275 3278 3279 3281 3282 3284 3286 3294 3302 3306 3313 3316 3317 3319 3322 3327 3328 3328 3331 3331 3331 3336 3344 3350 3351 3346 3337 3338 3342 3345 3344 3344 3346 3349 3350 3349 3357 3364 3369 3367 3365 3366 3370 3374 3380 3384 3379 3375 3370 3362 3359 3358 3362 3364 3370 3376 3378 3376 3380 3387 3390 3392 3398 3397 3399 3401 3403 3405 3408 3412 3419 3420 3413 3419 3420 3421 3427 3434 3439 3444 3445 3447 3450 3449 3445 3440 3436 3433 3431 3432 3432 3428 3427 3427 3426 3423 3421 3422 3420 3422 3425 3425 3430 3434 3438 3441 3441 3438 3447 3448 3449 3452 3460 3470 3479 3486 3494 3502 3504 3503 3503 3504 3508 3514 3519 3524 3525 3522 3519 3522 3528 3534 3536 3535 3531 3521 3508 3504 3502 3501 3505 3514 3523 3532 3534 3532 3538 3546 3551 3553 3558 3566 3570 3571 3573 3579 3587 3590 3593 3599 3606 3610 3612 3620 3625 3630 3633 3636 3640 3645 3650 3655 3660 3665 3670 3675 3681 3687 3691 3691 3695 3699 3704 3707 3707 3710 3717 3717 3716 3720 3719 3720 3723 3723 3720 3719 3720 3724 3727 3728 3734 3735 3736 3743 3749 3751 3759 3769 3780 3784 3784 3783 3780 3777 3778 3780 3783 3786 3789 3794 3795 3795 3800 3808 3814 3819 3824 3826 3829 3831 3831 3828 3818 3814 3814 3812 3812 3816 3818 3819 3821 3823 3823 3825 3827 3824 3819 3818 3816 3813 3808 3806 3808 3809 3807 3803 3801 3801 3802 3803 3801 3797 3789 3792 3792 3796 3796 3795 3793 3792 3794 3796 3794 3791 3793 3798 3801 3803 3806 3809 3816 3827 3826 3827 3828 3828 3827 3827 3828 3829 3826 3819 3822 3821 3821 3823 3823 3816 3808 3808 3808 3804 3805 3807 3808 3810 3813 3818 3826 3830 3833 3839 3847 3853 3856 3860 3866 3870 3875 3881 3886 3889 3891 3892 3893 3896 3900 3904 3907 3913 3916 3919 3925 3932 3936 3936 3932 3933 3935 3936 3935 3933 3934 3933 3936 3941 3936 3936 3935 3935 3935 3933 3932 3934 3937 3940 3938 3935 3933 3932 3930 3926 3917 3910 3904 3900 3897 3893 3889 3884 3879 3873 3870 3865 3862 3857 3851 3851 3851 3843 3840 3839 3831 3830 3830 3827 3821 3815 3810 3804 3795 3792 3794 3794 3792 3788 3782 3777 3778 3777 3773 3768 3762 3757 3755 3756 3759 3765 3767 3770 3775 3777 3781 3782 3780 3777 3775 3774 3769 3763 3761 3761 3762 3762 3760 3757 3758 3758 3757 3754 3751 3754 3756 3755 3754 3753 3751 3747 3743 3742 3744 3746 3745 3746 3746 3742 3739 3737 3738 3739 3739 3736 3737 3737 3739 3739 3736 3732 3729 3726 3726 3725 3716 3716 3715 3712 3709 3706 3704 3701 3693 3691 3687 3682 3683 3683 3682 3684 3688 3688 3682 3682 3685
2911 2911 2912 2915 2919 2924 2926 2926 2929 2935 2940 2944 2948 2951 2956 2961 2965 2971 2976 2986 2990 2989 2991 2997 3003 3007 3008 3015 3021 3015 3012 3016 3020 3020 3020 3025 3029 3035 3039 3043 3047 3050 3055 3061 3062 3060 3060 3065 3068 3072 3075 3079 3085 3087 3088 3091 3094 3095 3097 3100 3099 3099 3100 3097 3094 3095 3098 3101 3106 3111 3116 3120 3122 3124 3125 3123 3123 3126 3131 3137 3142 3146 3154 3157 3160 3164 3167 3171 3178 3184 3186 3184 3183 3183 3185 3188 3192 3196 3201 3205 3209 3215 3218 3222 3229 3237 3246 3258 3265 3271 3275 3279 3283 3284 3287 3287 3282 3278 3279 3279 3282 3290 3297 3305 3314 3316 3316 3318 3323 3329 3330 3330 3332 3333 3331 3336 3346 3351 3355 3349 3340 3341 3348 3353 3352 3346 3347 3347 3346 3349 3357 3367 3369 3370 3370 3374 3376 3375 3376 3379 3378 3374 3370 3371 3369 3373 3375 3376 3379 3385 3390 3391 3391 3396 3399 3398 3399 3401 3407 3413 3413 3414 3413 3414 3420 3423 3421 3421 3425 3428 3434 3438 3442 3446 3449 3449 3450 3448 3442 3442 3438 3438 3438 3434 3432 3429 3425 3427 3433 3434 3434 3436 3434 3429 3429 3432 3431 3435 3439 3447 3446 3443 3446 3451 3455 3459 3466 3474 3479 3487 3495 3502 3507 3509 3509 3509 3513 3520 3526 3529 3531 3532 3534 3533 3531 3537 3541 3544 3542 3534 3523 3512 3506 3505 3509 3517 3528 3537 3540 3542 3546 3549 3556 3557 3560 3569 3575 3576 3579 3585 3591 3592 3594 3601 3610 3616 3619 3623 3632 3637 3639 3641 3644 3646 3650 3657 3664 3669 3674 3681 3687 3694 3697 3699 3704 3708 3710 3713 3715 3718 3726 3725 3723 3725 3724 3721 3723 3723 3723 3725 3724 3729 3731 3733 3737 3741 3742 3746 3751 3752 3757 3766 3777 3786 3789 3791 3787 3784 3784 3786 3790 3794 3797 3802 3806 3808 3812 3816 3821 3826 3829 3832 3834 3838 3835 3831 3823 3821 3822 3825 3827 3826 3826 3822 3827 3830 3831 3835 3837 3833 3827 3826 3822 3818 3817 3812 3812 3815 3815 3811 3805 3807 3806 3805 3806 3803 3798 3796 3796 3799 3803 3803 3800 3797 3799 3801 3801 3802 3804 3805 3806 3811 3813 3817 3823 3829 3831 3832 3834 3835 3835 3833 3833 3833 3831 3828 3826 3824 3826 3830 3829 3824 3820 3815 3812 3810 3809 3811 3814 3815 3818 3822 3827 3831 3834 3839 3851 3857 3859 3862 3867 3875 3882 3886 3890 3892 3893 3896 3898 3903 3908 3911 3912 3918 3925 3927 3932 3935 3940 3942 3941 3940 3943 3947 3942 3942 3947 3945 3942 3944 3943 3941 3939 3936 3939 3940 3940 3940 3940 3941 3941 3938 3937 3936 3933 3928 3922 3916 3910 3905 3902 3900 3895 3891 3887 3879 3871 3866 3862 3859 3857 3860 3859 3850 3845 3842 3838 3832 3832 3830 3822 3819 3814 3808 3802 3798 3797 3798 3797 3794 3789 3783 3781 3781 3777 3773 3770 3763 3760 3764 3769 3773 3773 3775 3780 3783 3785 3785 3776 3772 3773 3773 3771 3771 3770 3769 3770 3767 3763 3764 3765 3764 3763 3763 3760 3762 3763 3762 3761 3759 3756 3755 3752 3747 3749 3754 3753 3750 3748 3746 3745 3746 3741 3738 3741 3742 3742 3743 3744 3742 3738 3732 3730 3728 3728 3728 3722 3718 3718 3716 3712 3708 3708 3702 3697 3693 3688 3684 3688 3691 3688 3687 3689 3689 3686 3686 3688
2915 2919 2921 2923 2923 2928 2932 2934 2937 2941 2943 2946 2951 2952 2959 2963 2968 2974 2981 2988 2994 2995 2997 3001 3004 3008 3011 3016 3021 3020 3012 3017 3025 3027 3027 3029 3034 3038 3040 3046 3052 3055 3061 3066 3068 3066 3065 3070 3073 3075 3077 3081 3087 3090 3092 3095 3099 3101 3102 3104 3104 3104 3105 3105 3109 3111 3115 3119 3119 3121 3125 3129 3129 3127 3126 3126 3127 3127 3131 3138 3144 3147 3152 3158 3161 3163 3167 3171 3177 3185 3190 3191 3191 3189 3188 3190 3195 3199 3203 3207 3213 3219 3222 3223 3232 3239 3249 3258 3265 3271 3276 3279 3283 3291 3292 3290 3286 3282 3281 3282 3285 3292 3296 3303 3311 3315 3317 3321 3326 3330 3333 3335 3338 3337 3335 3339 3346 3352 3359 3359 3348 3349 3357 3360 3357 3351 3347 3350 3350 3353 3355 3363 3369 3371 3374 3378 3380 3379 3375 3375 3375 3374 3374 3374 3374 3378 3381 3385 3391 3398 3400 3400 3402 3404 3401 3399 3401 3407 3411 3417 3420 3421 3420 3418 3423 3429 3430 3430 3430 3433 3436 3441 3446 3449 3451 3450 3449 3447 3448 3450 3451 3449 3443 3433 3428 3432 3428 3425 3428 3438 3446 3443 3443 3438 3440 3438 3434 3435 3441 3447 3453 3452 3450 3452 3457 3465 3471 3475 3480 3488 3496 3500 3506 3511 3513 3514 3518 3525 3529 3530 3532 3537 3539 3537 3535 3538 3546 3549 3548 3542 3533 3522 3512 3509 3514 3519 3527 3545 3546 3548 3550 3555 3561 3563 3566 3573 3581 3586 3588 3589 3591 3592 3596 3604 3613 3618 3621 3626 3635 3644 3649 3651 3651 3651 3655 3661 3666 3670 3677 3685 3692 3698 3702 3705 3710 3711 3714 3717 3720 3724 3727 3731 3730 3731 3733 3726 3723 3727 3732 3734 3735 3738 3740 3740 3745 3748 3751 3753 3755 3758 3760 3767 3776 3785 3792 3799 3799 3798 3798 3797 3799 3803 3807 3809 3812 3816 3821 3826 3831 3836 3837 3839 3841 3846 3844 3835 3825 3824 3824 3826 3829 3832 3834 3835 3834 3835 3839 3845 3843 3835 3834 3832 3828 3824 3821 3819 3817 3817 3820 3817 3815 3816 3815 3810 3807 3807 3806 3806 3807 3806 3807 3808 3807 3802 3800 3807 3810 3812 3814 3813 3814 3818 3821 3823 3830 3832 3831 3833 3835 3837 3841 3843 3843 3839 3838 3842 3839 3832 3832 3835 3831 3827 3825 3822 3820 3817 3818 3818 3820 3823 3825 3826 3828 3834 3841 3847 3855 3862 3867 3869 3876 3883 3886 3889 3892 3896 3899 3901 3904 3906 3911 3917 3918 3924 3930 3934 3936 3939 3943 3946 3945 3947 3952 3955 3954 3953 3956 3953 3946 3947 3949 3948 3944 3941 3942 3944 3944 3942 3942 3943 3943 3944 3944 3942 3938 3934 3928 3922 3915 3910 3909 3906 3902 3898 3893 3885 3877 3872 3867 3865 3866 3864 3860 3859 3856 3849 3841 3839 3840 3834 3826 3823 3821 3813 3805 3803 3802 3800 3797 3795 3793 3791 3790 3786 3782 3779 3779 3777 3774 3772 3774 3777 3778 3779 3783 3787 3788 3786 3778 3769 3773 3775 3772 3772 3774 3775 3773 3770 3768 3770 3772 3769 3768 3770 3770 3769 3768 3767 3767 3764 3763 3762 3759 3756 3758 3760 3756 3753 3752 3753 3753 3756 3753 3750 3750 3751 3752 3754 3751 3746 3743 3738 3734 3733 3730 3731 3723 3717 3716 3715 3713 3710 3709 3707 3701 3695 3692 3690 3694 3695 3692 3689 3689 3688 3686 3688 3689
2919 2926 2929 2930 2931 2933 2936 2938 2943 2950 2952 2953 2952 2954 2961 2967 2970 2978 2987 2993 2995 2997 3002 3006 3008 3010 3014 3020 3024 3027 3025 3027 3033 3035 3034 3030 3034 3038 3039 3047 3056 3061 3066 3071 3074 3074 3074 3076 3079 3081 3082 3085 3089 3092 3094 3097 3101 3103 3104 3106 3107 3106 3109 3116 3124 3125 3127 3130 3131 3129 3131 3134 3136 3134 3134 3135 3134 3131 3132 3139 3144 3148 3155 3162 3164 3165 3168 3174 3182 3188 3189 3194 3195 3193 3192 3193 3196 3202 3206 3211 3218 3223 3225 3228 3233 3240 3247 3257 3265 3271 3276 3279 3283 3288 3292 3290 3287 3287 3287 3285 3286 3291 3297 3302 3309 3314 3321 3330 3330 3332 3337 3341 3343 3343 3342 3346 3352 3356 3360 3362 3358 3354 3356 3360 3361 3358 3355 3355 3359 3362 3361 3363 3372 3378 3380 3382 3384 3382 3380 3380 3380 3379 3379 3377 3377 3380 3382 3387 3395 3401 3401 3403 3413 3417 3409 3402 3403 3408 3413 3418 3421 3423 3425 3426 3429 3433 3436 3437 3436 3435 3434 3440 3447 3451 3451 3453 3456 3450 3446 3452 3454 3452 3445 3440 3440 3447 3450 3441 3434 3444 3449 3447 3445 3446 3447 3446 3438 3440 3447 3451 3456 3456 3456 3459 3464 3470 3476 3480 3483 3489 3496 3502 3509 3514 3520 3520 3523 3526 3528 3530 3536 3542 3545 3546 3541 3542 3547 3550 3552 3549 3545 3538 3522 3518 3525 3526 3530 3540 3551 3557 3557 3560 3568 3570 3572 3578 3585 3590 3593 3594 3595 3595 3596 3604 3610 3617 3623 3630 3638 3646 3652 3655 3654 3659 3663 3667 3671 3675 3681 3690 3698 3704 3705 3708 3713 3717 3721 3725 3730 3731 3733 3736 3736 3737 3744 3746 3738 3738 3740 3741 3743 3746 3746 3748 3751 3754 3756 3757 3759 3764 3766 3770 3777 3787 3800 3807 3810 3811 3810 3808 3808 3812 3819 3822 3823 3824 3830 3835 3838 3839 3841 3843 3848 3850 3853 3844 3834 3833 3831 3830 3831 3835 3837 3838 3839 3839 3843 3847 3846 3843 3841 3835 3832 3829 3830 3829 3827 3826 3825 3825 3821 3823 3819 3815 3814 3814 3814 3815 3815 3815 3817 3817 3816 3812 3811 3815 3820 3817 3817 3819 3822 3825 3826 3828 3833 3837 3838 3836 3836 3838 3840 3843 3846 3843 3843 3846 3846 3845 3845 3841 3837 3834 3833 3831 3829 3827 3825 3827 3826 3826 3829 3830 3833 3838 3845 3852 3860 3867 3874 3876 3882 3887 3889 3893 3898 3900 3906 3909 3909 3909 3914 3919 3922 3931 3939 3941 3942 3943 3946 3950 3950 3950 3954 3960 3963 3961 3962 3959 3954 3952 3953 3955 3953 3948 3948 3951 3951 3949 3948 3947 3945 3943 3947 3946 3942 3939 3935 3929 3922 3913 3914 3907 3904 3903 3894 3886 3885 3884 3875 3871 3871 3867 3864 3865 3865 3859 3852 3848 3846 3839 3831 3828 3826 3818 3809 3807 3807 3802 3797 3796 3796 3795 3794 3793 3789 3787 3784 3782 3780 3780 3781 3783 3785 3786 3788 3792 3793 3790 3782 3776 3778 3782 3781 3775 3775 3778 3774 3770 3769 3770 3771 3771 3769 3768 3770 3771 3772 3771 3771 3770 3769 3769 3766 3760 3759 3761 3758 3758 3760 3762 3763 3762 3759 3756 3756 3756 3758 3759 3756 3751 3749 3743 3739 3736 3733 3733 3727 3717 3714 3715 3715 3713 3712 3709 3706 3701 3698 3700 3702 3700 3697 3696 3694 3692 3690 3690 3693
2924 2929 2931 2934 2937 2937 2940 2945 2950 2955 2958 2959 2956 2958 2966 2971 2976 2983 2991 3000 3002 3005 3008 3010 3015 3018 3023 3026 3026 3029 3033 3038 3040 3039 3034 3031 3034 3038 3040 3047 3056 3062 3068 3072 3075 3078 3080 3083 3085 3088 3090 3092 3095 3096 3098 3100 3101 3103 3105 3107 3109 3110 3114 3124 3136 3142 3143 3148 3146 3138 3135 3137 3138 3139 3140 3143 3144 3140 3139 3143 3147 3152 3158 3164 3168 3169 3171 3178 3185 3189 3192 3195 3200 3201 3197 3197 3199 3204 3210 3216 3221 3225 3228 3230 3236 3241 3247 3255 3263 3269 3273 3277 3282 3286 3288 3288 3287 3287 3288 3287 3285 3288 3294 3299 3307 3315 3321 3327 3331 3334 3340 3346 3352 3353 3354 3358 3361 3361 3362 3365 3361 3356 3359 3362 3365 3367 3367 3365 3363 3369 3368 3371 3380 3385 3387 3388 3388 3386 3385 3386 3389 3393 3391 3382 3379 3381 3383 3388 3397 3403 3405 3412 3419 3420 3420 3416 3411 3412 3416 3420 3424 3427 3428 3429 3429 3433 3438 3441 3442 3441 3438 3438 3446 3452 3456 3457 3465 3463 3456 3455 3457 3454 3452 3452 3455 3459 3457 3452 3450 3449 3448 3446 3448 3449 3454 3453 3447 3444 3449 3454 3456 3456 3455 3465 3472 3478 3483 3485 3488 3492 3496 3505 3510 3518 3525 3531 3532 3530 3530 3534 3541 3550 3552 3553 3551 3549 3552 3555 3556 3557 3554 3544 3536 3533 3537 3538 3537 3541 3554 3564 3563 3565 3572 3576 3577 3582 3589 3594 3594 3599 3603 3603 3601 3601 3605 3615 3627 3632 3639 3647 3653 3657 3660 3662 3666 3675 3679 3682 3687 3694 3702 3707 3710 3715 3722 3722 3726 3732 3737 3741 3743 3745 3746 3746 3750 3752 3751 3749 3750 3749 3750 3753 3753 3756 3758 3760 3762 3764 3766 3770 3772 3771 3780 3791 3801 3811 3817 3820 3819 3817 3817 3817 3826 3830 3833 3834 3835 3840 3842 3846 3852 3849 3854 3856 3856 3851 3844 3843 3842 3839 3841 3846 3847 3844 3842 3844 3847 3848 3848 3848 3845 3839 3835 3834 3837 3839 3833 3830 3835 3834 3831 3831 3830 3827 3827 3827 3825 3824 3824 3825 3827 3826 3824 3823 3821 3825 3822 3818 3819 3822 3826 3829 3831 3834 3838 3843 3845 3842 3842 3845 3848 3851 3852 3851 3851 3851 3850 3849 3847 3842 3839 3843 3844 3838 3835 3831 3829 3830 3829 3830 3835 3839 3839 3843 3848 3853 3860 3869 3878 3884 3889 3891 3893 3898 3903 3905 3906 3911 3913 3915 3922 3925 3930 3938 3944 3945 3946 3949 3953 3955 3956 3955 3957 3962 3966 3968 3968 3964 3958 3958 3958 3961 3961 3958 3955 3957 3958 3955 3955 3952 3949 3949 3949 3948 3944 3942 3940 3937 3933 3923 3914 3909 3906 3903 3897 3890 3889 3885 3878 3875 3874 3872 3870 3872 3874 3868 3860 3856 3852 3847 3840 3834 3828 3825 3816 3813 3814 3810 3803 3800 3801 3803 3799 3798 3794 3794 3791 3784 3782 3784 3787 3793 3795 3793 3793 3795 3794 3791 3787 3782 3782 3785 3787 3782 3780 3778 3774 3769 3770 3772 3772 3773 3772 3772 3772 3774 3776 3777 3776 3777 3774 3774 3772 3768 3765 3764 3764 3763 3766 3766 3765 3763 3760 3760 3760 3759 3757 3761 3757 3754 3750 3745 3741 3742 3740 3736 3733 3724 3719 3718 3718 3717 3715 3712 3708 3709 3705 3702 3703 3703 3702 3700 3697 3694 3692 3695 3697
2925 2928 2931 2937 2942 2943 2942 2948 2953 2956 2960 2963 2963 2965 2971 2976 2982 2987 2994 3004 3012 3017 3016 3016 3018 3024 3027 3028 3031 3031 3034 3039 3042 3040 3036 3035 3037 3041 3044 3050 3056 3061 3069 3074 3076 3079 3082 3086 3089 3093 3097 3100 3101 3101 3103 3106 3107 3108 3110 3114 3117 3117 3120 3130 3140 3148 3153 3156 3157 3155 3147 3142 3141 3142 3142 3143 3146 3148 3147 3146 3151 3157 3162 3165 3172 3176 3179 3183 3189 3193 3196 3200 3203 3204 3203 3202 3203 3206 3211 3218 3223 3227 3231 3237 3242 3245 3248 3255 3263 3267 3271 3275 3278 3281 3284 3286 3287 3288 3290 3289 3286 3288 3293 3300 3307 3315 3319 3322 3328 3335 3341 3348 3356 3359 3360 3365 3367 3366 3365 3366 3362 3358 3360 3365 3367 3371 3371 3370 3370 3372 3375 3377 3383 3386 3389 3392 3391 3388 3385 3388 3394 3405 3402 3389 3380 3381 3386 3396 3403 3405 3413 3415 3420 3419 3420 3424 3423 3420 3424 3430 3436 3439 3437 3432 3433 3437 3442 3446 3450 3452 3449 3442 3446 3453 3458 3463 3466 3468 3465 3463 3464 3459 3459 3463 3463 3460 3459 3457 3463 3454 3442 3443 3451 3451 3449 3452 3457 3452 3449 3452 3456 3461 3464 3469 3478 3483 3486 3487 3491 3496 3501 3505 3510 3517 3525 3532 3536 3537 3537 3541 3548 3555 3557 3556 3554 3555 3557 3559 3560 3561 3556 3542 3538 3539 3543 3547 3548 3552 3556 3562 3567 3569 3575 3578 3579 3584 3589 3594 3598 3604 3607 3609 3609 3605 3608 3617 3627 3634 3641 3651 3657 3661 3665 3665 3670 3678 3684 3689 3693 3703 3711 3715 3715 3719 3724 3726 3730 3735 3740 3745 3749 3751 3751 3752 3752 3751 3756 3760 3761 3757 3755 3755 3757 3760 3766 3769 3770 3771 3773 3779 3781 3780 3784 3794 3804 3813 3820 3825 3829 3828 3826 3827 3831 3836 3837 3839 3843 3849 3853 3859 3865 3862 3860 3869 3865 3862 3856 3855 3853 3850 3851 3853 3852 3852 3850 3853 3855 3854 3853 3850 3845 3843 3841 3839 3842 3842 3840 3839 3842 3842 3837 3839 3841 3838 3834 3831 3828 3829 3833 3835 3835 3832 3830 3828 3830 3832 3831 3827 3827 3830 3837 3839 3839 3842 3847 3848 3849 3849 3847 3854 3859 3862 3862 3859 3859 3859 3858 3855 3854 3851 3848 3847 3849 3845 3841 3841 3841 3840 3838 3839 3844 3846 3844 3846 3853 3858 3863 3869 3877 3886 3891 3894 3896 3898 3903 3905 3907 3916 3922 3925 3929 3932 3937 3944 3948 3945 3945 3950 3955 3959 3961 3962 3967 3969 3968 3973 3975 3969 3964 3963 3963 3963 3965 3962 3958 3958 3959 3959 3958 3955 3951 3951 3951 3947 3944 3946 3946 3944 3937 3926 3917 3912 3910 3906 3897 3892 3889 3887 3883 3881 3881 3880 3876 3875 3875 3872 3866 3863 3859 3851 3846 3842 3837 3832 3826 3819 3818 3815 3808 3808 3810 3809 3806 3801 3795 3794 3793 3785 3785 3788 3793 3798 3801 3801 3801 3798 3795 3792 3789 3787 3786 3787 3787 3784 3779 3777 3772 3770 3772 3776 3775 3774 3776 3777 3776 3777 3781 3783 3782 3781 3780 3777 3776 3772 3769 3768 3770 3771 3770 3768 3768 3767 3766 3766 3769 3766 3763 3760 3757 3753 3752 3747 3743 3744 3743 3739 3734 3729 3725 3724 3724 3722 3722 3717 3712 3711 3709 3705 3703 3703 3704 3702 3699 3697 3696 3698 3699
2927 2928 2931 2938 2945 2949 2949 2951 2955 2958 2963 2969 2970 2971 2973 2979 2986 2993 3001 3011 3022 3022 3019 3018 3021 3025 3027 3032 3038 3039 3033 3041 3045 3042 3041 3040 3041 3045 3050 3053 3057 3062 3069 3073 3075 3079 3084 3089 3092 3097 3103 3107 3106 3104 3106 3111 3114 3112 3116 3121 3123 3125 3128 3134 3142 3149 3156 3162 3166 3167 3160 3151 3146 3144 3145 3147 3148 3151 3152 3152 3154 3157 3162 3169 3177 3183 3186 3189 3193 3197 3200 3204 3209 3210 3207 3209 3208 3209 3212 3218 3223 3228 3234 3241 3247 3251 3254 3257 3261 3265 3269 3275 3276 3278 3281 3286 3289 3291 3293 3292 3289 3292 3296 3304 3312 3318 3320 3322 3328 3338 3343 3350 3358 3362 3364 3365 3368 3371 3370 3368 3364 3362 3363 3366 3368 3371 3371 3366 3367 3373 3376 3379 3383 3388 3392 3397 3399 3395 3387 3389 3396 3404 3403 3401 3399 3398 3401 3407 3406 3406 3410 3414 3416 3421 3424 3425 3426 3427 3433 3437 3440 3441 3442 3442 3443 3439 3440 3447 3453 3456 3454 3449 3449 3457 3460 3464 3468 3470 3472 3475 3472 3465 3463 3468 3464 3459 3462 3464 3463 3457 3448 3449 3458 3456 3447 3450 3456 3457 3455 3458 3466 3473 3473 3474 3479 3485 3489 3492 3494 3502 3505 3508 3511 3517 3524 3531 3538 3541 3543 3547 3554 3562 3563 3558 3554 3555 3557 3560 3560 3562 3560 3549 3545 3544 3547 3552 3556 3560 3562 3563 3567 3571 3577 3581 3583 3588 3594 3596 3601 3608 3611 3613 3615 3617 3616 3619 3627 3635 3645 3654 3660 3665 3669 3671 3675 3680 3683 3691 3700 3709 3719 3725 3726 3728 3730 3730 3736 3740 3743 3747 3752 3754 3754 3755 3756 3760 3762 3763 3765 3765 3763 3762 3765 3770 3773 3775 3777 3778 3780 3786 3787 3785 3789 3795 3804 3814 3821 3826 3832 3835 3835 3836 3838 3842 3844 3845 3848 3856 3868 3871 3870 3871 3873 3878 3877 3867 3860 3857 3856 3851 3853 3855 3855 3855 3857 3859 3861 3862 3861 3857 3851 3847 3846 3848 3848 3848 3846 3846 3848 3845 3842 3843 3848 3848 3843 3837 3836 3840 3840 3841 3840 3839 3843 3843 3835 3836 3833 3831 3833 3835 3840 3845 3848 3852 3858 3857 3854 3856 3860 3864 3868 3869 3866 3866 3863 3862 3862 3862 3863 3863 3862 3855 3851 3847 3846 3848 3850 3850 3848 3848 3851 3853 3851 3854 3857 3860 3864 3868 3872 3879 3886 3892 3897 3899 3904 3909 3916 3925 3928 3931 3937 3940 3943 3946 3948 3950 3952 3957 3958 3963 3969 3972 3974 3974 3974 3976 3979 3974 3969 3967 3966 3966 3967 3966 3963 3962 3964 3965 3963 3959 3955 3952 3952 3954 3950 3947 3947 3947 3940 3931 3925 3921 3914 3910 3903 3894 3891 3890 3887 3885 3884 3883 3878 3877 3875 3872 3868 3865 3860 3854 3851 3847 3843 3836 3836 3828 3824 3820 3816 3815 3816 3813 3812 3811 3808 3804 3797 3793 3794 3795 3799 3803 3802 3801 3801 3799 3796 3795 3795 3791 3789 3789 3788 3784 3781 3777 3773 3774 3776 3780 3782 3779 3779 3779 3780 3782 3784 3787 3786 3784 3784 3783 3780 3777 3776 3774 3773 3772 3773 3772 3772 3772 3770 3770 3771 3768 3765 3764 3759 3754 3753 3751 3748 3746 3743 3740 3737 3732 3728 3726 3726 3725 3723 3719 3715 3712 3710 3709 3706 3703 3702 3702 3701 3700 3698 3698 3698
2929 2931 2935 2940 2946 2949 2953 2954 2958 2961 2966 2970 2974 2977 2976 2978 2986 2995 3005 3014 3025 3031 3031 3032 3035 3033 3035 3037 3041 3042 3042 3046 3053 3049 3045 3044 3045 3050 3053 3055 3059 3065 3070 3075 3079 3084 3089 3093 3096 3101 3105 3109 3109 3108 3111 3115 3119 3119 3121 3125 3125 3127 3130 3137 3144 3149 3157 3165 3168 3170 3167 3158 3154 3150 3149 3150 3150 3149 3153 3155 3159 3162 3168 3176 3181 3183 3188 3196 3200 3203 3205 3208 3212 3213 3212 3212 3213 3213 3216 3219 3224 3229 3235 3243 3251 3257 3258 3260 3264 3267 3272 3275 3276 3278 3281 3286 3292 3295 3297 3299 3304 3306 3306 3311 3320 3328 3329 3329 3336 3344 3350 3356 3361 3365 3368 3365 3368 3372 3373 3371 3368 3366 3365 3367 3369 3373 3375 3373 3372 3374 3381 3386 3388 3391 3395 3401 3405 3404 3402 3402 3400 3399 3401 3409 3406 3406 3408 3408 3407 3408 3413 3417 3417 3426 3431 3431 3430 3433 3437 3439 3441 3442 3443 3448 3452 3451 3445 3444 3450 3454 3455 3455 3457 3459 3460 3464 3471 3478 3478 3475 3473 3468 3469 3472 3470 3464 3466 3467 3467 3466 3461 3464 3464 3458 3453 3454 3462 3462 3465 3472 3476 3481 3485 3484 3483 3487 3492 3496 3500 3506 3512 3518 3522 3522 3525 3529 3537 3542 3547 3551 3558 3566 3568 3563 3558 3559 3558 3559 3560 3560 3558 3551 3549 3550 3552 3557 3560 3566 3572 3574 3576 3579 3586 3589 3589 3595 3600 3603 3605 3610 3615 3617 3619 3623 3627 3627 3628 3636 3644 3652 3662 3667 3672 3675 3678 3684 3690 3695 3703 3712 3719 3726 3732 3736 3737 3738 3742 3750 3754 3751 3756 3757 3760 3765 3767 3769 3769 3767 3771 3774 3773 3774 3777 3778 3778 3779 3782 3784 3788 3794 3794 3794 3797 3801 3809 3820 3824 3830 3835 3839 3842 3844 3846 3853 3859 3856 3856 3862 3868 3871 3872 3879 3887 3889 3880 3868 3863 3858 3851 3852 3857 3863 3863 3860 3861 3862 3864 3865 3865 3863 3859 3855 3855 3857 3856 3854 3853 3856 3858 3855 3847 3849 3851 3851 3850 3848 3848 3848 3846 3844 3845 3848 3852 3850 3843 3835 3830 3831 3836 3839 3841 3848 3854 3861 3863 3863 3863 3864 3867 3870 3873 3873 3870 3868 3868 3868 3867 3867 3869 3868 3868 3862 3856 3853 3851 3854 3852 3852 3852 3854 3855 3857 3858 3860 3860 3864 3869 3874 3877 3879 3885 3894 3899 3902 3906 3912 3920 3926 3929 3932 3936 3939 3944 3947 3952 3956 3959 3963 3965 3967 3973 3979 3980 3979 3979 3982 3982 3980 3975 3972 3970 3970 3971 3970 3968 3968 3969 3969 3970 3967 3962 3959 3961 3961 3958 3951 3946 3946 3944 3934 3934 3929 3917 3913 3909 3903 3900 3898 3893 3885 3884 3883 3881 3880 3877 3871 3867 3865 3858 3853 3854 3852 3844 3837 3833 3833 3831 3826 3821 3819 3822 3821 3818 3815 3814 3813 3806 3797 3795 3796 3803 3808 3806 3803 3805 3806 3802 3799 3797 3795 3793 3791 3788 3783 3784 3784 3784 3782 3780 3780 3782 3782 3780 3781 3781 3783 3785 3786 3786 3786 3786 3785 3784 3784 3779 3780 3779 3778 3777 3778 3776 3776 3777 3774 3773 3770 3766 3765 3762 3760 3755 3751 3747 3745 3742 3739 3738 3737 3731 3727 3727 3726 3724 3718 3713 3713 3711 3709 3708 3704 3703 3703 3703 3700 3697 3696 3694
2937 2939 2940 2945 2947 2950 2953 2955 2958 2961 2965 2974 2980 2986 2985 2985 2987 2996 3008 3019 3029 3038 3039 3041 3042 3041 3040 3042 3047 3051 3054 3060 3062 3056 3052 3052 3052 3052 3055 3058 3060 3065 3071 3076 3082 3087 3093 3096 3099 3105 3108 3109 3109 3111 3117 3119 3121 3122 3126 3128 3129 3130 3133 3139 3144 3150 3155 3169 3176 3179 3177 3170 3162 3156 3154 3153 3149 3150 3153 3157 3161 3167 3175 3184 3188 3188 3193 3200 3205 3208 3211 3213 3215 3217 3217 3216 3217 3219 3222 3224 3227 3231 3237 3245 3254 3260 3263 3265 3269 3273 3277 3279 3277 3280 3285 3289 3292 3294 3297 3302 3306 3310 3311 3315 3322 3329 3332 3334 3340 3347 3354 3359 3362 3364 3366 3368 3369 3372 3375 3374 3372 3371 3370 3371 3374 3379 3381 3380 3378 3377 3383 3387 3391 3395 3399 3404 3405 3406 3405 3404 3402 3401 3404 3407 3408 3409 3411 3409 3410 3414 3420 3425 3429 3431 3435 3438 3441 3441 3442 3444 3447 3447 3445 3451 3461 3467 3455 3449 3451 3454 3456 3458 3461 3465 3464 3470 3481 3486 3486 3481 3475 3476 3478 3478 3476 3477 3476 3472 3470 3474 3470 3460 3466 3469 3470 3468 3467 3469 3472 3475 3480 3484 3490 3492 3494 3495 3497 3501 3506 3511 3515 3522 3524 3527 3531 3535 3538 3542 3549 3555 3561 3568 3570 3571 3570 3567 3563 3562 3561 3560 3558 3556 3555 3556 3557 3564 3569 3568 3575 3577 3577 3583 3590 3594 3594 3594 3599 3606 3610 3613 3618 3621 3625 3630 3635 3635 3630 3635 3641 3647 3659 3670 3676 3680 3682 3692 3698 3703 3710 3717 3722 3729 3735 3739 3740 3744 3751 3758 3761 3760 3759 3762 3768 3775 3776 3776 3774 3774 3776 3780 3781 3781 3783 3785 3788 3787 3788 3791 3795 3801 3801 3798 3806 3812 3818 3824 3830 3835 3839 3845 3855 3860 3860 3868 3868 3866 3866 3867 3872 3873 3879 3889 3896 3896 3886 3874 3868 3861 3858 3859 3863 3867 3866 3864 3864 3866 3869 3869 3868 3867 3865 3864 3863 3861 3861 3859 3861 3865 3869 3870 3867 3864 3861 3857 3854 3854 3857 3856 3857 3859 3857 3856 3855 3850 3850 3842 3835 3836 3844 3850 3854 3860 3863 3864 3868 3869 3869 3869 3874 3878 3879 3878 3875 3869 3870 3873 3874 3872 3868 3868 3869 3867 3861 3853 3855 3858 3857 3855 3855 3857 3859 3861 3862 3864 3865 3869 3875 3878 3883 3887 3895 3898 3902 3907 3910 3914 3920 3926 3930 3935 3937 3941 3946 3950 3954 3960 3963 3968 3973 3970 3975 3982 3986 3986 3986 3987 3989 3984 3983 3980 3979 3979 3978 3978 3977 3975 3974 3973 3970 3968 3967 3968 3968 3966 3962 3954 3950 3945 3940 3937 3935 3935 3931 3924 3919 3911 3907 3907 3903 3895 3888 3886 3884 3882 3882 3874 3869 3865 3860 3857 3856 3854 3846 3838 3832 3831 3832 3833 3828 3823 3824 3826 3821 3815 3812 3810 3806 3802 3799 3799 3804 3809 3809 3808 3809 3809 3807 3808 3808 3800 3796 3795 3790 3785 3785 3786 3787 3786 3783 3782 3783 3784 3783 3781 3781 3783 3785 3786 3786 3788 3787 3786 3788 3788 3782 3779 3781 3780 3780 3782 3780 3779 3781 3780 3776 3774 3768 3763 3761 3761 3757 3752 3747 3742 3742 3741 3741 3737 3733 3730 3729 3728 3725 3719 3714 3714 3714 3711 3707 3705 3704 3704 3703 3700 3696 3693 3690
2942 2943 2946 2950 2952 2951 2954 2956 2958 2961 2968 2978 2986 2989 2990 2992 2994 3006 3018 3024 3031 3037 3041 3043 3047 3054 3047 3046 3053 3060 3064 3066 3067 3064 3060 3060 3059 3059 3062 3064 3066 3070 3075 3078 3085 3092 3097 3101 3106 3111 3112 3115 3112 3116 3124 3126 3125 3126 3128 3131 3132 3134 3133 3138 3145 3153 3164 3174 3180 3185 3185 3187 3178 3167 3163 3157 3153 3154 3157 3159 3165 3169 3177 3188 3194 3196 3200 3204 3208 3212 3216 3219 3221 3222 3222 3221 3220 3222 3228 3230 3232 3234 3242 3251 3257 3262 3267 3270 3272 3276 3282 3285 3286 3287 3289 3292 3294 3294 3297 3303 3308 3312 3314 3317 3321 3327 3330 3333 3339 3345 3352 3358 3361 3362 3365 3369 3372 3373 3375 3378 3380 3377 3375 3377 3378 3381 3381 3382 3382 3382 3383 3386 3390 3396 3401 3404 3407 3408 3407 3406 3404 3408 3408 3406 3407 3410 3412 3411 3414 3422 3424 3430 3436 3440 3443 3448 3451 3448 3446 3450 3455 3459 3458 3458 3463 3465 3461 3456 3456 3458 3459 3458 3459 3467 3475 3480 3485 3487 3488 3486 3481 3480 3482 3482 3480 3482 3485 3484 3476 3475 3472 3467 3467 3471 3476 3480 3477 3476 3478 3481 3483 3488 3493 3495 3497 3499 3499 3504 3508 3513 3519 3526 3529 3530 3535 3538 3544 3549 3556 3561 3564 3568 3571 3575 3574 3569 3567 3565 3563 3564 3565 3564 3567 3563 3563 3568 3573 3577 3579 3581 3582 3586 3594 3598 3600 3599 3601 3609 3618 3620 3624 3628 3633 3639 3642 3641 3638 3636 3642 3648 3658 3671 3679 3681 3688 3698 3706 3711 3715 3720 3724 3734 3740 3742 3743 3746 3751 3757 3762 3765 3767 3768 3772 3777 3780 3780 3780 3781 3783 3782 3782 3785 3788 3790 3793 3795 3794 3797 3801 3804 3804 3804 3810 3817 3822 3828 3833 3838 3842 3847 3857 3865 3867 3868 3867 3867 3876 3885 3889 3889 3890 3898 3899 3901 3891 3878 3876 3871 3869 3871 3870 3866 3866 3866 3869 3872 3873 3873 3872 3870 3870 3868 3862 3866 3866 3867 3871 3873 3873 3877 3881 3878 3870 3868 3864 3868 3873 3872 3872 3872 3870 3869 3865 3857 3854 3852 3848 3844 3850 3858 3864 3869 3872 3875 3876 3876 3876 3877 3880 3884 3883 3883 3882 3877 3874 3876 3879 3877 3871 3870 3871 3871 3867 3863 3860 3865 3866 3865 3864 3865 3867 3870 3872 3872 3871 3879 3882 3883 3887 3895 3902 3905 3908 3912 3914 3918 3924 3926 3930 3934 3939 3944 3951 3955 3960 3962 3967 3975 3978 3978 3980 3986 3989 3989 3990 3993 3993 3992 3991 3990 3987 3987 3985 3985 3986 3984 3982 3979 3973 3971 3972 3975 3976 3973 3967 3959 3954 3949 3942 3940 3938 3940 3937 3931 3924 3918 3914 3912 3909 3904 3895 3894 3890 3885 3883 3877 3868 3868 3864 3862 3862 3858 3853 3847 3841 3838 3834 3833 3831 3825 3828 3828 3822 3817 3820 3817 3809 3806 3807 3809 3809 3811 3813 3810 3808 3806 3811 3813 3816 3810 3802 3796 3791 3788 3788 3787 3786 3787 3787 3788 3788 3789 3787 3783 3783 3783 3785 3785 3786 3788 3789 3788 3789 3791 3785 3783 3782 3782 3782 3784 3782 3778 3779 3778 3776 3774 3771 3766 3763 3763 3756 3752 3748 3743 3743 3745 3744 3739 3734 3731 3730 3729 3725 3719 3715 3714 3715 3714 3710 3705 3704 3700 3697 3696 3693 3688 3686
2942 2943 2946 2953 2954 2954 2956 2959 2962 2966 2971 2979 2986 2989 2990 2997 3005 3011 3021 3032 3035 3041 3044 3051 3062 3066 3062 3059 3064 3068 3071 3073 3071 3070 3071 3070 3068 3066 3071 3073 3073 3076 3080 3086 3092 3097 3100 3101 3110 3112 3113 3116 3119 3125 3130 3133 3133 3131 3132 3135 3137 3138 3138 3140 3148 3157 3163 3172 3179 3184 3188 3192 3192 3184 3173 3165 3163 3160 3160 3163 3167 3172 3180 3191 3199 3203 3208 3212 3215 3219 3223 3227 3230 3228 3226 3223 3223 3224 3228 3232 3232 3237 3247 3255 3261 3266 3270 3273 3275 3280 3286 3290 3290 3291 3293 3296 3299 3301 3302 3306 3312 3315 3319 3323 3325 3327 3329 3332 3338 3345 3352 3356 3359 3363 3368 3370 3371 3372 3373 3380 3384 3381 3378 3379 3380 3381 3383 3385 3391 3391 3390 3390 3390 3393 3399 3404 3411 3416 3416 3412 3409 3411 3410 3405 3406 3409 3414 3416 3418 3421 3424 3429 3436 3440 3448 3456 3458 3451 3451 3455 3460 3463 3465 3466 3466 3467 3462 3459 3457 3460 3466 3464 3457 3465 3481 3487 3490 3490 3488 3487 3486 3483 3481 3483 3484 3488 3490 3490 3485 3477 3475 3472 3473 3478 3481 3483 3484 3484 3486 3486 3485 3490 3494 3495 3497 3500 3504 3508 3514 3519 3525 3532 3533 3534 3535 3538 3542 3550 3555 3563 3565 3567 3572 3578 3579 3575 3571 3568 3566 3568 3568 3568 3569 3569 3567 3570 3574 3585 3587 3592 3591 3590 3596 3601 3605 3607 3606 3614 3621 3625 3629 3635 3640 3644 3647 3651 3648 3649 3652 3656 3662 3670 3676 3682 3691 3702 3710 3714 3718 3722 3730 3739 3744 3747 3747 3749 3753 3758 3765 3772 3773 3773 3779 3784 3783 3782 3783 3787 3789 3790 3789 3791 3791 3795 3797 3800 3801 3804 3807 3808 3811 3812 3819 3821 3825 3832 3840 3845 3847 3852 3857 3863 3867 3870 3872 3874 3880 3890 3899 3898 3899 3902 3900 3901 3899 3890 3884 3877 3873 3875 3874 3869 3870 3873 3876 3879 3878 3881 3881 3879 3877 3876 3876 3878 3879 3880 3885 3885 3881 3883 3886 3884 3878 3877 3878 3876 3877 3878 3877 3881 3883 3878 3871 3867 3861 3859 3856 3853 3857 3865 3871 3874 3877 3880 3882 3884 3883 3883 3884 3887 3888 3889 3891 3892 3886 3885 3888 3889 3884 3878 3876 3874 3872 3869 3870 3873 3875 3875 3874 3872 3872 3874 3879 3880 3883 3886 3888 3888 3891 3894 3902 3906 3910 3918 3922 3924 3929 3931 3935 3936 3938 3946 3954 3959 3964 3967 3970 3978 3982 3983 3987 3993 3995 3994 3993 3995 3998 3998 3998 3996 3993 3992 3992 3991 3991 3987 3985 3983 3978 3977 3975 3975 3976 3973 3968 3958 3954 3953 3953 3950 3948 3945 3938 3931 3927 3923 3918 3914 3910 3906 3901 3896 3893 3887 3881 3878 3875 3872 3868 3866 3866 3863 3858 3857 3852 3850 3844 3840 3838 3838 3839 3838 3827 3826 3827 3826 3822 3817 3816 3819 3819 3821 3823 3818 3813 3812 3813 3813 3808 3811 3806 3797 3794 3793 3793 3793 3791 3791 3792 3792 3794 3795 3792 3789 3788 3788 3788 3789 3789 3790 3791 3792 3791 3789 3787 3788 3790 3785 3786 3786 3784 3780 3779 3778 3777 3777 3772 3770 3766 3763 3758 3755 3752 3746 3743 3744 3743 3740 3736 3733 3730 3727 3722 3718 3716 3715 3714 3714 3710 3706 3704 3700 3694 3697 3692 3686 3684
2943 2944 2948 2954 2956 2957 2959 2962 2965 2971 2976 2980 2983 2987 2994 3004 3011 3016 3022 3030 3038 3048 3057 3063 3074 3076 3070 3067 3070 3076 3082 3083 3081 3077 3078 3078 3077 3078 3080 3080 3081 3084 3086 3090 3096 3099 3100 3102 3106 3112 3116 3122 3126 3132 3132 3132 3134 3135 3136 3138 3140 3142 3142 3143 3151 3159 3164 3170 3178 3185 3190 3194 3195 3193 3186 3177 3171 3167 3164 3167 3169 3173 3181 3189 3198 3206 3213 3219 3223 3227 3231 3234 3236 3233 3229 3226 3227 3227 3233 3233 3234 3239 3247 3256 3264 3270 3275 3278 3280 3283 3287 3290 3293 3297 3299 3299 3301 3305 3308 3311 3314 3318 3321 3323 3328 3332 3332 3333 3341 3350 3356 3358 3359 3364 3371 3372 3372 3374 3377 3380 3383 3382 3381 3382 3380 3385 3389 3390 3396 3399 3400 3403 3401 3398 3402 3409 3415 3416 3417 3418 3415 3414 3416 3414 3412 3414 3416 3418 3417 3418 3421 3425 3433 3440 3449 3456 3458 3455 3454 3460 3465 3468 3470 3473 3474 3474 3470 3465 3455 3459 3477 3474 3466 3469 3482 3490 3492 3494 3493 3495 3496 3491 3486 3485 3487 3492 3495 3492 3487 3486 3482 3478 3480 3485 3486 3485 3485 3487 3490 3490 3491 3495 3500 3503 3502 3501 3508 3514 3519 3524 3528 3532 3537 3540 3535 3535 3540 3544 3551 3560 3566 3569 3571 3579 3581 3579 3574 3571 3572 3573 3574 3572 3573 3573 3572 3572 3577 3587 3596 3602 3605 3602 3605 3608 3610 3611 3612 3617 3623 3628 3635 3639 3644 3649 3654 3657 3659 3662 3664 3664 3665 3671 3676 3684 3693 3701 3710 3715 3718 3728 3734 3740 3744 3748 3751 3754 3763 3770 3772 3778 3778 3780 3786 3789 3784 3781 3788 3791 3791 3794 3798 3800 3802 3804 3804 3806 3810 3813 3820 3821 3821 3823 3828 3830 3829 3837 3851 3855 3859 3861 3862 3866 3872 3879 3885 3884 3885 3891 3900 3904 3903 3903 3904 3906 3907 3900 3889 3881 3877 3877 3878 3875 3876 3881 3883 3884 3885 3886 3887 3887 3883 3886 3885 3886 3891 3893 3894 3894 3888 3885 3886 3885 3883 3885 3891 3892 3888 3887 3888 3890 3893 3888 3882 3878 3873 3868 3863 3860 3865 3873 3878 3881 3883 3883 3885 3891 3895 3894 3893 3891 3892 3896 3899 3898 3897 3896 3898 3900 3895 3889 3884 3880 3878 3877 3879 3880 3884 3885 3882 3878 3878 3881 3884 3888 3889 3888 3887 3891 3896 3900 3905 3908 3912 3921 3928 3927 3929 3934 3939 3941 3943 3950 3956 3962 3966 3970 3974 3979 3982 3986 3992 3999 4002 4003 4002 4001 4003 4003 4003 4003 4001 4001 3998 3994 3994 3990 3988 3986 3984 3981 3978 3975 3978 3975 3966 3957 3954 3955 3956 3956 3953 3949 3942 3935 3930 3927 3922 3915 3910 3908 3902 3896 3892 3888 3881 3877 3879 3877 3870 3870 3868 3863 3859 3857 3855 3853 3854 3850 3847 3848 3848 3844 3837 3830 3830 3829 3827 3826 3825 3827 3828 3830 3829 3825 3819 3818 3818 3813 3807 3808 3810 3805 3799 3800 3799 3797 3798 3798 3799 3800 3800 3801 3801 3797 3796 3793 3793 3792 3791 3791 3791 3793 3791 3790 3790 3791 3795 3792 3788 3790 3789 3784 3781 3782 3781 3777 3773 3768 3765 3760 3754 3752 3749 3745 3742 3740 3739 3738 3735 3734 3730 3723 3718 3716 3715 3714 3713 3712 3707 3702 3703 3698 3695 3694 3693 3688 3684
2951 2952 2956 2962 2961 2961 2962 2964 2967 2973 2980 2981 2983 2987 2995 3005 3012 3018 3025 3032 3038 3052 3063 3071 3081 3087 3083 3074 3074 3081 3084 3087 3088 3087 3085 3084 3085 3087 3088 3086 3089 3091 3092 3094 3098 3102 3105 3107 3112 3115 3122 3126 3131 3136 3136 3133 3134 3141 3141 3142 3144 3147 3147 3147 3151 3159 3167 3173 3182 3190 3194 3195 3196 3194 3193 3184 3178 3173 3171 3171 3174 3176 3180 3186 3194 3204 3214 3222 3229 3233 3235 3239 3240 3238 3232 3232 3232 3233 3235 3237 3238 3244 3249 3259 3265 3270 3276 3281 3285 3286 3288 3292 3297 3303 3305 3303 3302 3307 3313 3317 3317 3324 3327 3328 3331 3335 3337 3340 3347 3356 3359 3361 3363 3368 3371 3372 3376 3382 3384 3384 3384 3386 3388 3387 3388 3390 3390 3389 3396 3400 3401 3402 3403 3407 3410 3414 3419 3422 3426 3427 3425 3423 3422 3420 3420 3423 3426 3424 3420 3418 3421 3425 3429 3438 3447 3457 3460 3460 3462 3465 3469 3472 3476 3478 3475 3472 3469 3464 3466 3473 3484 3485 3471 3470 3481 3488 3495 3497 3499 3501 3500 3496 3492 3488 3491 3496 3498 3499 3497 3493 3487 3479 3483 3489 3490 3490 3489 3495 3501 3499 3495 3501 3506 3510 3509 3509 3513 3520 3524 3528 3529 3532 3540 3546 3542 3537 3540 3546 3549 3563 3568 3569 3575 3583 3583 3578 3576 3573 3576 3577 3580 3580 3578 3577 3577 3577 3581 3590 3596 3603 3606 3610 3613 3616 3617 3619 3623 3627 3631 3634 3639 3645 3650 3655 3659 3660 3665 3668 3671 3672 3671 3672 3677 3683 3700 3706 3715 3719 3723 3730 3738 3743 3748 3753 3758 3763 3770 3776 3780 3782 3785 3788 3792 3793 3792 3794 3796 3797 3798 3800 3804 3806 3810 3811 3810 3813 3816 3820 3828 3831 3832 3830 3833 3835 3839 3847 3854 3859 3864 3867 3868 3875 3877 3886 3894 3895 3892 3893 3902 3908 3908 3906 3906 3908 3907 3900 3892 3881 3880 3882 3883 3881 3882 3885 3888 3888 3889 3890 3890 3890 3890 3891 3892 3893 3897 3900 3902 3900 3901 3901 3895 3889 3889 3892 3899 3905 3901 3900 3900 3901 3902 3903 3899 3890 3877 3878 3871 3872 3877 3879 3882 3886 3889 3888 3890 3898 3904 3907 3907 3904 3900 3903 3904 3905 3903 3903 3905 3907 3905 3898 3892 3890 3887 3888 3889 3887 3887 3890 3887 3881 3885 3889 3890 3892 3894 3893 3889 3887 3894 3898 3905 3909 3915 3923 3927 3929 3932 3937 3941 3943 3948 3954 3959 3963 3967 3972 3978 3982 3983 3987 3992 3998 4003 4007 4009 4008 4008 4008 4008 4008 4008 4007 4004 3999 3999 3999 3997 3997 3991 3986 3985 3984 3983 3981 3974 3966 3963 3961 3959 3960 3957 3951 3946 3939 3932 3927 3924 3918 3910 3906 3904 3898 3894 3891 3885 3883 3884 3881 3876 3873 3871 3866 3864 3862 3859 3855 3856 3857 3856 3855 3850 3845 3838 3834 3832 3832 3830 3830 3831 3832 3833 3835 3835 3832 3827 3822 3818 3814 3809 3808 3813 3814 3807 3801 3801 3801 3803 3805 3806 3808 3808 3807 3806 3803 3799 3797 3797 3796 3791 3790 3792 3793 3792 3792 3793 3794 3796 3799 3801 3799 3797 3795 3790 3784 3781 3774 3769 3766 3764 3763 3759 3751 3746 3744 3744 3743 3741 3740 3737 3736 3731 3723 3717 3714 3713 3712 3712 3710 3706 3702 3700 3697 3693 3692 3691 3690 3685
2957 2958 2961 2963 2963 2962 2965 2970 2972 2974 2979 2983 2991 2999 3002 3008 3016 3020 3025 3032 3043 3057 3068 3074 3082 3091 3093 3087 3082 3083 3086 3089 3092 3095 3092 3090 3090 3094 3097 3096 3095 3099 3101 3101 3104 3109 3113 3115 3118 3121 3123 3128 3133 3141 3145 3143 3142 3144 3147 3146 3143 3148 3155 3156 3155 3160 3166 3173 3183 3192 3195 3197 3198 3198 3196 3191 3184 3179 3174 3174 3176 3180 3181 3184 3191 3200 3212 3221 3228 3233 3239 3243 3243 3241 3238 3235 3236 3236 3238 3240 3244 3249 3255 3261 3268 3272 3275 3282 3287 3291 3293 3297 3303 3307 3310 3309 3307 3312 3318 3320 3322 3326 3331 3332 3335 3338 3341 3347 3351 3355 3358 3361 3365 3373 3376 3373 3378 3385 3387 3386 3387 3388 3388 3388 3392 3393 3389 3389 3395 3401 3401 3396 3405 3414 3413 3416 3422 3428 3433 3437 3436 3431 3430 3429 3431 3431 3432 3433 3434 3433 3437 3431 3432 3440 3449 3458 3465 3467 3468 3471 3473 3474 3477 3479 3479 3475 3475 3475 3468 3478 3486 3489 3486 3480 3481 3489 3498 3503 3499 3501 3499 3497 3498 3498 3496 3498 3499 3503 3500 3496 3490 3484 3483 3488 3492 3495 3497 3499 3506 3508 3507 3505 3507 3510 3515 3516 3519 3525 3531 3533 3536 3541 3545 3549 3548 3541 3546 3549 3553 3562 3570 3572 3576 3584 3584 3582 3580 3581 3583 3583 3584 3587 3583 3581 3583 3585 3587 3590 3594 3599 3605 3612 3617 3620 3624 3627 3630 3633 3636 3638 3645 3651 3654 3659 3661 3661 3663 3666 3669 3672 3667 3671 3673 3686 3702 3713 3720 3725 3728 3738 3747 3754 3761 3767 3770 3771 3774 3783 3788 3793 3793 3792 3794 3796 3799 3803 3806 3806 3809 3813 3814 3815 3816 3818 3818 3822 3824 3831 3833 3833 3834 3836 3838 3841 3845 3855 3858 3862 3868 3873 3878 3880 3879 3883 3898 3903 3898 3901 3907 3911 3914 3911 3908 3909 3905 3899 3894 3890 3887 3889 3890 3888 3888 3892 3894 3894 3894 3895 3894 3894 3895 3893 3893 3897 3903 3907 3909 3910 3915 3922 3915 3901 3900 3899 3902 3906 3908 3910 3914 3911 3910 3910 3909 3899 3888 3883 3881 3882 3885 3885 3888 3891 3893 3894 3897 3903 3908 3912 3917 3916 3916 3916 3915 3913 3912 3909 3908 3907 3908 3900 3895 3896 3896 3893 3895 3894 3889 3889 3889 3887 3889 3895 3900 3900 3899 3903 3904 3901 3900 3904 3910 3916 3921 3925 3928 3931 3935 3940 3943 3945 3948 3954 3960 3964 3967 3971 3979 3985 3988 3992 3996 3998 4003 4008 4010 4014 4015 4013 4011 4013 4013 4013 4012 4010 4008 4006 4004 4002 3996 3989 3989 3987 3985 3982 3977 3972 3970 3969 3966 3963 3960 3952 3949 3943 3935 3928 3926 3922 3911 3907 3904 3902 3898 3894 3890 3889 3890 3886 3880 3877 3871 3869 3868 3866 3862 3856 3856 3858 3859 3858 3851 3847 3844 3838 3836 3834 3835 3834 3834 3836 3838 3840 3841 3839 3832 3823 3821 3816 3814 3814 3815 3818 3812 3802 3801 3807 3808 3808 3811 3813 3813 3811 3809 3807 3801 3799 3798 3797 3793 3791 3796 3797 3794 3794 3796 3797 3798 3800 3801 3801 3799 3798 3792 3792 3788 3782 3774 3769 3768 3768 3764 3755 3751 3749 3749 3750 3747 3743 3739 3736 3734 3725 3720 3718 3716 3714 3712 3710 3706 3705 3700 3696 3694 3693 3692 3691 3686
2959 2961 2963 2962 2962 2963 2967 2974 2977 2978 2982 2989 2997 3003 3007 3011 3016 3021 3024 3029 3046 3062 3072 3079 3086 3093 3098 3098 3094 3093 3093 3095 3101 3105 3104 3100 3099 3101 3103 3102 3105 3106 3106 3108 3111 3115 3119 3124 3127 3127 3129 3137 3146 3152 3157 3159 3157 3153 3156 3153 3149 3152 3161 3163 3159 3164 3168 3170 3180 3190 3196 3200 3203 3205 3204 3203 3195 3186 3178 3175 3178 3181 3183 3184 3190 3198 3208 3217 3225 3231 3238 3246 3250 3251 3245 3245 3245 3243 3240 3243 3249 3254 3261 3266 3269 3276 3282 3288 3294 3299 3300 3300 3306 3309 3312 3315 3316 3318 3322 3324 3325 3329 3332 3334 3337 3343 3347 3350 3350 3351 3356 3359 3365 3375 3379 3377 3378 3385 3388 3387 3387 3388 3389 3391 3395 3397 3392 3390 3397 3404 3402 3400 3407 3414 3413 3414 3423 3429 3434 3439 3442 3439 3433 3432 3435 3435 3436 3440 3443 3440 3440 3439 3438 3446 3455 3464 3471 3474 3476 3477 3479 3480 3479 3484 3485 3486 3488 3480 3475 3479 3486 3492 3498 3488 3489 3499 3505 3507 3507 3506 3504 3500 3499 3500 3499 3499 3501 3504 3501 3498 3496 3492 3491 3493 3498 3501 3503 3502 3501 3507 3512 3512 3512 3516 3520 3521 3525 3530 3536 3538 3543 3548 3549 3549 3549 3551 3553 3554 3554 3563 3570 3574 3578 3582 3584 3583 3581 3581 3584 3585 3588 3589 3589 3587 3590 3594 3593 3591 3596 3601 3606 3612 3618 3624 3629 3632 3634 3639 3642 3644 3651 3656 3657 3659 3664 3663 3662 3671 3677 3676 3676 3677 3681 3692 3704 3716 3726 3732 3738 3748 3757 3762 3771 3777 3783 3785 3784 3790 3798 3802 3801 3796 3800 3805 3807 3810 3811 3812 3816 3822 3827 3825 3825 3826 3826 3827 3827 3832 3838 3835 3835 3844 3846 3847 3853 3860 3866 3870 3872 3875 3880 3880 3880 3885 3892 3898 3903 3907 3912 3914 3915 3913 3911 3912 3909 3904 3902 3899 3896 3896 3896 3897 3898 3900 3902 3903 3902 3904 3903 3903 3901 3898 3898 3902 3909 3914 3914 3912 3919 3926 3923 3915 3907 3904 3903 3911 3915 3920 3922 3922 3919 3916 3915 3910 3899 3891 3886 3887 3890 3893 3895 3899 3904 3905 3907 3911 3915 3917 3918 3920 3924 3924 3922 3920 3919 3914 3910 3910 3908 3906 3895 3896 3898 3896 3898 3900 3899 3895 3893 3894 3894 3900 3906 3906 3905 3908 3913 3914 3915 3916 3920 3923 3925 3928 3930 3933 3937 3943 3946 3947 3949 3954 3961 3966 3969 3972 3978 3984 3989 3993 3997 4000 4003 4008 4011 4017 4022 4022 4020 4021 4022 4020 4017 4015 4013 4009 4008 4008 4002 3997 3993 3990 3985 3981 3978 3976 3975 3973 3971 3968 3963 3956 3951 3947 3940 3934 3930 3925 3919 3913 3908 3903 3901 3896 3892 3892 3891 3888 3884 3880 3876 3873 3871 3865 3858 3856 3858 3859 3861 3861 3856 3852 3846 3840 3838 3837 3837 3838 3839 3839 3840 3843 3845 3841 3832 3823 3818 3818 3820 3822 3820 3816 3811 3805 3805 3810 3811 3808 3810 3813 3813 3812 3812 3810 3805 3800 3800 3799 3794 3794 3799 3801 3799 3797 3799 3801 3801 3800 3801 3799 3797 3796 3793 3791 3795 3790 3780 3773 3769 3768 3765 3760 3756 3754 3754 3751 3745 3741 3737 3735 3733 3730 3725 3721 3718 3716 3714 3711 3707 3704 3698 3692 3693 3694 3693 3693 3689
