ncols        103
nrows        59
xllcorner    7.642916666667
yllcorner    45.969027777778
cellsize 30
3067 3072 3075 3081 3086 3090 3095 3100 3102 3103 3102 3102 3103 3102 3102 3102 3104 3108 3123 3153 3165 3190 3203 3211 3212 3214 3214 3217 3216 3220 3225 3230 3233 3235 3239 3245 3249 3251 3248 3246 3246 3246 3255 3262 3263 3269 3279 3283 3290 3294 3301 3305 3307 3308 3311 3312 3314 3316 3320 3325 3326 3329 3331 3335 3342 3347 3350 3352 3355 3359 3368 3383 3394 3401 3398 3391 3381 3370 3395 3440 3464 3469 3470 3475 3474 3474 3477 3475 3453 3452 3462 3469 3463 3457 3452 3448 3440 3422 3411 3405 3393 3337 3263 
3083 3086 3088 3091 3095 3099 3102 3106 3107 3108 3109 3110 3111 3111 3111 3112 3115 3124 3154 3184 3202 3215 3225 3226 3226 3227 3229 3231 3232 3234 3236 3238 3240 3242 3246 3250 3256 3258 3260 3259 3258 3262 3271 3274 3280 3283 3291 3296 3302 3304 3308 3311 3313 3315 3315 3319 3318 3321 3329 3335 3340 3343 3345 3348 3353 3354 3354 3364 3366 3371 3376 3391 3415 3415 3410 3432 3424 3424 3441 3468 3494 3503 3517 3513 3509 3509 3504 3496 3491 3477 3486 3489 3481 3472 3465 3458 3456 3453 3429 3404 3392 3379 3284 
3099 3101 3101 3100 3104 3107 3109 3110 3111 3112 3115 3119 3121 3122 3123 3125 3126 3158 3195 3208 3221 3231 3233 3233 3235 3238 3241 3243 3244 3245 3244 3246 3249 3250 3252 3255 3258 3263 3266 3270 3271 3279 3284 3288 3292 3296 3302 3308 3310 3312 3313 3316 3316 3313 3316 3323 3324 3331 3339 3349 3352 3352 3358 3367 3374 3372 3382 3398 3416 3422 3426 3434 3430 3460 3466 3463 3457 3466 3468 3492 3520 3543 3551 3549 3542 3535 3523 3514 3506 3513 3514 3507 3497 3485 3470 3456 3447 3441 3433 3411 3384 3372 3372 
3114 3115 3115 3115 3115 3115 3116 3119 3122 3124 3125 3128 3136 3135 3138 3153 3187 3210 3220 3231 3238 3240 3239 3240 3242 3247 3252 3254 3255 3254 3255 3255 3258 3260 3259 3260 3266 3267 3274 3275 3283 3292 3297 3302 3303 3305 3310 3315 3318 3318 3321 3323 3323 3320 3319 3329 3335 3342 3349 3354 3358 3365 3379 3384 3389 3394 3408 3435 3452 3453 3448 3435 3479 3489 3495 3494 3494 3491 3495 3516 3532 3556 3565 3558 3547 3543 3531 3525 3509 3508 3504 3500 3495 3483 3467 3452 3440 3431 3420 3402 3383 3374 3368 
3120 3122 3125 3126 3125 3124 3125 3129 3133 3135 3135 3138 3143 3143 3172 3212 3226 3236 3241 3245 3247 3247 3247 3248 3252 3256 3261 3263 3263 3264 3265 3267 3267 3267 3269 3272 3279 3284 3286 3289 3294 3302 3309 3312 3312 3313 3316 3321 3321 3323 3326 3335 3338 3337 3339 3343 3347 3350 3357 3366 3380 3389 3394 3394 3396 3405 3428 3459 3475 3476 3474 3492 3507 3516 3525 3524 3527 3503 3508 3523 3547 3560 3561 3560 3553 3539 3525 3518 3513 3505 3497 3490 3479 3467 3453 3437 3428 3420 3410 3396 3379 3364 3360 
3126 3129 3132 3134 3133 3133 3135 3140 3144 3145 3146 3149 3169 3206 3230 3242 3250 3254 3254 3253 3256 3256 3256 3260 3265 3267 3269 3271 3271 3273 3274 3275 3274 3275 3278 3285 3294 3297 3301 3303 3309 3312 3316 3319 3319 3323 3327 3331 3333 3335 3342 3348 3353 3353 3351 3351 3353 3357 3369 3387 3395 3403 3403 3404 3420 3436 3457 3477 3485 3495 3510 3526 3523 3542 3539 3543 3530 3526 3535 3544 3552 3559 3552 3548 3539 3529 3516 3507 3503 3496 3483 3467 3455 3447 3436 3421 3414 3410 3399 3387 3371 3356 3306 
3133 3136 3139 3139 3138 3140 3143 3149 3157 3163 3165 3193 3237 3248 3257 3261 3266 3266 3269 3269 3271 3272 3268 3273 3276 3278 3278 3281 3283 3283 3281 3283 3284 3285 3289 3297 3305 3307 3309 3311 3315 3319 3323 3327 3332 3335 3341 3346 3349 3352 3354 3359 3361 3359 3357 3359 3362 3373 3384 3390 3397 3407 3421 3435 3445 3458 3499 3519 3532 3539 3545 3553 3564 3569 3570 3578 3569 3565 3563 3559 3559 3552 3541 3528 3508 3513 3502 3490 3488 3475 3456 3443 3433 3423 3413 3406 3400 3392 3383 3370 3356 3350 3338 
3141 3141 3143 3145 3148 3152 3158 3165 3194 3197 3220 3240 3256 3265 3267 3272 3273 3277 3281 3286 3288 3289 3287 3287 3287 3288 3289 3291 3295 3293 3292 3294 3294 3295 3299 3306 3310 3314 3320 3323 3327 3332 3334 3338 3343 3347 3352 3357 3360 3362 3366 3369 3368 3367 3366 3367 3373 3383 3392 3399 3406 3425 3444 3447 3487 3495 3514 3553 3572 3574 3588 3596 3599 3597 3607 3601 3586 3579 3572 3557 3551 3534 3530 3505 3508 3491 3483 3472 3466 3449 3434 3422 3411 3402 3392 3386 3382 3374 3364 3351 3336 3297 3222 
3153 3145 3148 3152 3157 3161 3168 3180 3219 3240 3255 3263 3266 3269 3276 3280 3283 3287 3292 3296 3302 3300 3300 3297 3299 3300 3300 3304 3305 3304 3301 3301 3302 3303 3306 3311 3316 3325 3335 3341 3343 3343 3346 3348 3353 3358 3363 3367 3368 3371 3376 3383 3381 3377 3378 3381 3390 3399 3409 3420 3435 3449 3455 3489 3501 3531 3571 3595 3607 3617 3633 3647 3648 3635 3614 3609 3607 3587 3580 3562 3537 3517 3520 3512 3489 3480 3474 3464 3448 3428 3414 3405 3394 3380 3374 3373 3369 3364 3349 3330 3316 3300 3237 
3171 3175 3164 3157 3158 3158 3237 3242 3248 3269 3268 3272 3276 3282 3287 3289 3293 3295 3299 3305 3313 3314 3312 3310 3309 3307 3308 3307 3311 3305 3305 3304 3305 3308 3309 3325 3333 3343 3354 3354 3353 3354 3355 3361 3369 3373 3377 3379 3378 3379 3383 3385 3386 3387 3389 3402 3414 3423 3437 3454 3463 3473 3495 3506 3530 3582 3611 3624 3633 3648 3670 3670 3664 3657 3638 3617 3603 3598 3574 3552 3529 3513 3503 3513 3491 3457 3453 3436 3418 3408 3403 3391 3376 3367 3359 3351 3346 3328 3313 3303 3276 3209 3157 
3185 3181 3175 3166 3219 3228 3240 3278 3292 3323 3328 3277 3285 3289 3296 3295 3296 3299 3303 3309 3315 3332 3341 3344 3335 3328 3346 3353 3358 3362 3361 3370 3368 3367 3375 3342 3353 3363 3368 3366 3364 3363 3368 3374 3378 3382 3384 3386 3388 3389 3389 3390 3387 3391 3399 3413 3428 3437 3499 3491 3502 3501 3537 3550 3582 3617 3645 3665 3678 3680 3687 3684 3677 3667 3652 3628 3616 3601 3571 3546 3533 3520 3509 3500 3482 3447 3448 3432 3413 3400 3390 3378 3364 3352 3342 3327 3306 3288 3274 3244 3202 3170 3150 
3273 3264 3238 3240 3254 3269 3294 3321 3354 3371 3368 3371 3284 3289 3292 3370 3382 3380 3369 3360 3366 3356 3360 3365 3393 3391 3389 3388 3390 3390 3405 3419 3425 3424 3423 3425 3440 3454 3450 3381 3378 3378 3380 3384 3385 3387 3390 3392 3397 3402 3402 3398 3526 3532 3531 3530 3529 3542 3513 3524 3544 3555 3554 3589 3623 3648 3679 3695 3708 3706 3701 3693 3685 3670 3654 3632 3613 3598 3576 3547 3525 3522 3511 3503 3460 3450 3449 3422 3405 3395 3379 3360 3342 3330 3320 3304 3290 3276 3258 3249 3188 3138 3130 
3316 3317 3311 3321 3335 3360 3369 3391 3389 3395 3388 3391 3398 3386 3375 3403 3406 3412 3409 3408 3420 3413 3406 3408 3414 3427 3422 3422 3433 3429 3434 3448 3467 3473 3475 3498 3501 3517 3516 3476 3387 3390 3395 3396 3396 3395 3396 3400 3406 3407 3495 3512 3561 3603 3623 3607 3591 3582 3571 3583 3586 3590 3597 3624 3646 3689 3713 3729 3730 3723 3712 3709 3694 3670 3659 3645 3622 3600 3567 3539 3528 3514 3507 3483 3455 3429 3441 3416 3400 3383 3366 3344 3326 3317 3307 3293 3276 3254 3215 3154 3119 3110 3097 
3349 3355 3428 3368 3388 3403 3422 3420 3440 3448 3438 3436 3448 3447 3445 3460 3469 3439 3443 3452 3458 3454 3450 3462 3463 3458 3468 3475 3475 3470 3497 3501 3489 3494 3518 3513 3547 3554 3545 3517 3503 3493 3486 3408 3406 3401 3398 3492 3505 3514 3530 3552 3576 3597 3629 3634 3628 3619 3612 3607 3606 3603 3634 3651 3692 3730 3742 3750 3743 3734 3726 3711 3688 3670 3664 3650 3625 3602 3574 3537 3522 3508 3478 3476 3441 3415 3418 3393 3388 3376 3352 3333 3323 3311 3295 3282 3275 3211 3135 3121 3108 3093 3084 
3392 3412 3429 3439 3448 3499 3545 3546 3477 3477 3476 3492 3485 3478 3483 3487 3486 3479 3497 3487 3505 3499 3509 3519 3525 3514 3506 3503 3510 3514 3522 3525 3523 3579 3573 3587 3603 3601 3580 3555 3544 3528 3527 3525 3516 3517 3528 3533 3537 3557 3569 3587 3601 3639 3663 3673 3660 3648 3642 3630 3634 3643 3655 3694 3725 3757 3762 3758 3752 3740 3731 3708 3689 3663 3653 3641 3623 3599 3562 3534 3520 3497 3476 3459 3442 3416 3416 3393 3383 3369 3352 3335 3313 3297 3297 3228 3196 3171 3121 3114 3103 3089 3076 
3380 3410 3421 3441 3456 3490 3533 3545 3556 3568 3482 3444 3518 3520 3520 3516 3509 3520 3521 3538 3531 3562 3593 3597 3601 3542 3544 3545 3542 3544 3564 3591 3627 3634 3649 3642 3634 3629 3623 3591 3581 3576 3571 3563 3559 3560 3569 3568 3578 3592 3602 3616 3653 3673 3680 3684 3691 3672 3666 3676 3680 3689 3696 3721 3753 3766 3769 3761 3754 3742 3728 3713 3688 3663 3649 3634 3621 3593 3562 3535 3504 3494 3479 3461 3441 3414 3405 3390 3376 3361 3342 3316 3294 3279 3272 3210 3174 3156 3114 3108 3100 3083 3066 
3382 3405 3423 3440 3456 3485 3525 3536 3554 3572 3582 3593 3625 3549 3550 3544 3561 3580 3588 3595 3611 3608 3609 3602 3605 3612 3580 3584 3594 3603 3609 3627 3664 3666 3675 3670 3651 3649 3645 3641 3632 3614 3612 3605 3597 3593 3597 3597 3608 3611 3630 3675 3676 3691 3707 3720 3720 3716 3715 3715 3714 3724 3735 3759 3788 3787 3774 3764 3751 3738 3718 3705 3691 3673 3650 3645 3627 3596 3575 3538 3505 3489 3474 3462 3434 3405 3397 3379 3362 3337 3314 3306 3288 3250 3224 3196 3160 3140 3126 3103 3098 3078 3063 
3370 3391 3417 3437 3456 3492 3521 3531 3545 3566 3587 3611 3636 3656 3619 3659 3670 3657 3647 3644 3639 3650 3676 3687 3662 3655 3641 3647 3642 3639 3650 3660 3681 3694 3703 3709 3708 3718 3716 3693 3714 3708 3646 3639 3629 3622 3627 3631 3633 3646 3681 3694 3715 3721 3727 3753 3756 3762 3752 3760 3763 3757 3754 3795 3796 3790 3784 3766 3741 3723 3712 3699 3692 3678 3652 3648 3619 3593 3576 3558 3516 3495 3478 3466 3431 3413 3390 3361 3336 3323 3312 3297 3272 3251 3216 3180 3149 3140 3123 3101 3080 3067 3054 
3336 3363 3386 3416 3444 3482 3513 3527 3543 3561 3583 3608 3631 3653 3678 3697 3720 3733 3734 3691 3683 3758 3775 3784 3788 3735 3718 3708 3673 3671 3664 3702 3707 3726 3720 3713 3731 3726 3725 3726 3727 3728 3726 3714 3658 3656 3650 3694 3690 3694 3704 3714 3722 3730 3747 3763 3779 3787 3785 3784 3782 3777 3793 3793 3797 3794 3781 3756 3738 3721 3708 3693 3677 3655 3653 3615 3587 3583 3570 3564 3547 3511 3494 3466 3446 3409 3387 3350 3327 3314 3303 3294 3274 3241 3216 3171 3145 3126 3103 3081 3066 3049 3043 
3322 3336 3358 3394 3445 3463 3493 3519 3534 3553 3575 3596 3625 3647 3670 3692 3716 3735 3740 3749 3765 3779 3810 3820 3827 3827 3756 3755 3751 3745 3749 3763 3767 3759 3759 3753 3745 3749 3762 3761 3753 3752 3744 3738 3727 3714 3703 3700 3703 3710 3719 3732 3732 3741 3763 3782 3807 3816 3806 3805 3800 3799 3801 3803 3804 3798 3782 3754 3736 3716 3701 3681 3668 3657 3623 3594 3588 3580 3569 3557 3543 3517 3495 3464 3441 3425 3392 3376 3338 3312 3295 3297 3267 3237 3179 3161 3124 3105 3086 3065 3046 3039 3035 
3309 3329 3339 3384 3428 3454 3477 3502 3520 3541 3563 3583 3606 3632 3655 3680 3710 3728 3745 3762 3780 3816 3832 3830 3839 3855 3856 3853 3812 3802 3806 3821 3828 3802 3790 3783 3778 3785 3783 3799 3798 3776 3761 3751 3739 3729 3725 3723 3727 3728 3729 3744 3746 3757 3776 3805 3822 3835 3839 3824 3822 3819 3822 3818 3808 3799 3778 3757 3742 3716 3703 3685 3665 3643 3619 3600 3582 3570 3554 3539 3523 3506 3487 3462 3437 3422 3394 3372 3342 3306 3288 3283 3234 3178 3151 3128 3092 3087 3067 3053 3037 3031 3024 
3297 3320 3336 3374 3409 3435 3460 3477 3500 3523 3544 3568 3595 3621 3645 3667 3690 3718 3736 3759 3785 3823 3828 3840 3852 3859 3866 3870 3866 3872 3898 3899 3900 3851 3809 3795 3795 3810 3807 3812 3796 3792 3772 3761 3757 3745 3743 3742 3744 3743 3751 3754 3772 3783 3809 3821 3838 3843 3852 3853 3840 3836 3833 3824 3823 3807 3776 3771 3753 3737 3718 3692 3661 3641 3620 3589 3575 3559 3537 3518 3502 3486 3471 3453 3433 3408 3392 3368 3333 3290 3275 3258 3207 3161 3119 3084 3086 3074 3062 3050 3038 3032 3026 
3293 3319 3341 3364 3384 3413 3436 3459 3484 3512 3532 3553 3585 3613 3637 3657 3672 3689 3723 3745 3766 3804 3833 3835 3850 3863 3875 3883 3900 3907 3916 3919 3913 3901 3855 3839 3832 3830 3828 3816 3802 3792 3778 3762 3756 3749 3750 3761 3763 3769 3789 3787 3791 3804 3819 3836 3842 3852 3856 3865 3860 3858 3853 3835 3822 3820 3797 3784 3757 3738 3719 3704 3662 3652 3622 3589 3571 3554 3530 3512 3485 3467 3454 3438 3416 3396 3377 3347 3320 3283 3242 3225 3194 3144 3115 3086 3081 3072 3065 3054 3044 3036 3029 
3274 3315 3345 3357 3377 3399 3423 3446 3471 3498 3525 3548 3580 3606 3625 3642 3659 3671 3696 3734 3758 3777 3821 3827 3840 3857 3886 3901 3910 3922 3952 3955 3950 3912 3897 3861 3855 3850 3835 3822 3804 3795 3761 3759 3752 3750 3761 3767 3774 3787 3798 3816 3818 3819 3839 3848 3849 3861 3861 3871 3875 3873 3865 3851 3835 3830 3816 3801 3772 3756 3734 3703 3684 3665 3646 3617 3587 3558 3536 3497 3482 3469 3438 3418 3402 3368 3346 3325 3301 3274 3238 3213 3188 3135 3126 3103 3091 3076 3068 3058 3049 3042 3030 
3255 3302 3344 3356 3372 3392 3413 3436 3462 3486 3512 3540 3562 3596 3620 3633 3630 3651 3693 3711 3740 3759 3787 3816 3824 3848 3887 3912 3925 3947 3960 3966 3959 3947 3913 3885 3864 3851 3845 3833 3801 3766 3758 3749 3740 3737 3736 3765 3785 3795 3810 3834 3851 3853 3863 3865 3863 3866 3874 3879 3882 3880 3866 3865 3868 3862 3844 3824 3801 3775 3752 3728 3701 3689 3667 3626 3606 3592 3529 3490 3491 3445 3416 3405 3394 3367 3335 3312 3289 3262 3244 3210 3184 3146 3137 3120 3099 3086 3074 3064 3054 3044 3034 
3283 3327 3343 3360 3375 3393 3411 3427 3449 3472 3504 3530 3548 3552 3595 3615 3624 3628 3644 3689 3731 3759 3784 3794 3820 3836 3881 3916 3931 3949 3958 3963 3961 3951 3948 3912 3884 3857 3855 3833 3803 3757 3739 3692 3700 3703 3696 3739 3777 3791 3818 3852 3876 3892 3886 3871 3875 3878 3886 3892 3886 3876 3878 3873 3868 3871 3865 3844 3823 3808 3785 3761 3730 3683 3687 3647 3625 3592 3539 3504 3498 3445 3422 3398 3376 3354 3323 3305 3285 3268 3233 3215 3188 3159 3136 3124 3109 3094 3081 3069 3057 3045 3035 
3307 3338 3348 3362 3377 3388 3405 3418 3436 3456 3495 3522 3538 3545 3582 3594 3627 3627 3646 3681 3710 3739 3759 3775 3795 3841 3864 3902 3915 3940 3964 3963 3967 3963 3951 3951 3905 3897 3856 3861 3803 3746 3679 3669 3665 3671 3693 3706 3753 3775 3826 3873 3888 3905 3899 3901 3891 3890 3896 3892 3891 3890 3873 3875 3882 3889 3877 3862 3844 3826 3804 3785 3767 3735 3690 3658 3629 3588 3542 3518 3497 3454 3413 3392 3380 3350 3329 3297 3283 3265 3225 3208 3193 3165 3140 3126 3112 3097 3084 3072 3058 3040 3030 
3310 3337 3353 3368 3379 3389 3399 3410 3427 3447 3476 3510 3531 3542 3568 3590 3611 3627 3660 3674 3709 3744 3736 3760 3788 3832 3858 3892 3922 3936 3951 3971 3971 3974 3968 3953 3958 3914 3894 3869 3808 3741 3666 3646 3603 3604 3659 3700 3716 3781 3812 3879 3915 3934 3923 3931 3929 3934 3908 3900 3899 3900 3909 3919 3921 3925 3900 3891 3865 3849 3833 3811 3772 3755 3702 3669 3629 3608 3550 3528 3491 3447 3413 3394 3375 3355 3330 3298 3274 3254 3220 3202 3191 3169 3145 3126 3113 3097 3081 3067 3055 3038 3031 
3297 3322 3354 3370 3383 3391 3398 3405 3422 3444 3473 3502 3525 3540 3564 3590 3603 3627 3658 3676 3705 3729 3737 3750 3771 3798 3852 3884 3918 3934 3941 3957 3963 3967 3962 3962 3962 3925 3900 3875 3805 3730 3653 3611 3594 3584 3603 3647 3701 3759 3800 3894 3942 3998 4003 3977 3967 3957 3943 3941 3923 3927 3959 3966 3952 3956 3929 3911 3901 3864 3852 3819 3784 3749 3708 3680 3636 3625 3590 3534 3486 3447 3421 3398 3380 3357 3329 3305 3280 3249 3233 3207 3189 3162 3149 3132 3115 3095 3079 3060 3052 3037 3029 
3279 3291 3336 3363 3376 3386 3393 3405 3424 3448 3471 3505 3526 3537 3570 3586 3603 3631 3653 3670 3698 3725 3739 3751 3768 3792 3831 3887 3908 3922 3932 3931 3955 3964 3966 3962 3952 3932 3891 3875 3797 3725 3616 3581 3551 3567 3587 3594 3661 3718 3806 3892 3998 4017 4044 4046 4041 4037 4037 4038 4035 4008 4013 4005 3989 3987 3990 3966 3919 3900 3883 3870 3809 3789 3730 3699 3662 3642 3597 3542 3510 3452 3438 3405 3384 3354 3338 3313 3301 3261 3245 3226 3197 3164 3144 3127 3113 3095 3078 3063 3047 3034 3027 
3258 3291 3328 3347 3362 3375 3386 3402 3429 3456 3470 3487 3528 3525 3562 3577 3598 3633 3650 3663 3720 3732 3745 3748 3768 3787 3812 3852 3892 3914 3917 3927 3936 3945 3944 3945 3931 3903 3873 3838 3758 3649 3574 3555 3554 3543 3537 3604 3646 3719 3803 3919 4018 4050 4070 4100 4111 4121 4117 4124 4076 4048 4026 4031 4025 4018 4006 3990 3964 3915 3898 3885 3872 3811 3760 3726 3695 3640 3603 3588 3519 3487 3448 3410 3387 3370 3355 3344 3308 3269 3257 3229 3205 3174 3139 3121 3106 3092 3079 3060 3045 3037 3025 
3246 3280 3325 3338 3349 3364 3376 3394 3420 3452 3469 3470 3487 3520 3540 3574 3604 3629 3642 3666 3725 3728 3740 3750 3766 3790 3813 3837 3863 3891 3895 3897 3930 3925 3905 3909 3909 3883 3858 3807 3709 3606 3573 3556 3549 3548 3552 3574 3625 3710 3796 3936 4038 4077 4111 4129 4148 4159 4164 4160 4136 4092 4075 4076 4049 4038 4020 4009 3973 3940 3900 3902 3882 3842 3771 3755 3718 3679 3643 3604 3561 3502 3478 3444 3403 3384 3367 3351 3330 3303 3256 3228 3222 3182 3132 3122 3099 3085 3066 3052 3040 3032 3023 
3246 3261 3299 3326 3339 3353 3365 3382 3413 3436 3462 3451 3473 3503 3532 3559 3589 3637 3644 3650 3680 3725 3723 3746 3765 3772 3790 3811 3832 3855 3856 3879 3884 3878 3880 3873 3878 3858 3848 3802 3699 3599 3578 3568 3565 3566 3567 3602 3624 3715 3793 3970 4073 4103 4139 4152 4161 4173 4171 4158 4164 4171 4125 4074 4080 4045 4032 4023 4000 3968 3939 3907 3893 3862 3834 3765 3746 3703 3685 3641 3578 3541 3487 3472 3441 3410 3381 3371 3352 3327 3304 3261 3231 3201 3168 3113 3088 3078 3063 3054 3037 3026 3020 
3243 3251 3280 3302 3325 3339 3353 3369 3403 3437 3419 3426 3456 3496 3544 3556 3581 3630 3637 3647 3674 3689 3715 3725 3761 3766 3777 3780 3810 3807 3813 3842 3838 3832 3843 3840 3843 3844 3806 3746 3689 3622 3607 3573 3575 3585 3613 3633 3680 3752 3870 3962 4072 4137 4148 4160 4170 4184 4188 4205 4211 4183 4169 4119 4074 4081 4052 4027 4022 3990 3961 3935 3905 3875 3865 3820 3760 3741 3710 3680 3668 3569 3536 3494 3466 3450 3427 3395 3378 3361 3327 3300 3240 3219 3182 3151 3085 3077 3079 3060 3039 3027 3023 
3238 3247 3265 3290 3308 3324 3339 3356 3382 3403 3397 3419 3449 3488 3533 3572 3586 3599 3619 3636 3648 3673 3675 3712 3726 3756 3753 3751 3764 3770 3766 3760 3756 3783 3790 3804 3808 3799 3743 3724 3682 3661 3622 3607 3605 3615 3635 3660 3676 3769 3883 3970 4079 4142 4144 4167 4181 4191 4205 4222 4227 4212 4179 4164 4126 4111 4081 4051 4025 3999 3982 3968 3947 3917 3874 3866 3845 3824 3750 3712 3682 3668 3570 3537 3498 3476 3455 3431 3409 3395 3370 3331 3280 3235 3209 3176 3144 3088 3085 3053 3052 3032 3028 
3236 3242 3254 3275 3292 3306 3321 3339 3356 3362 3379 3397 3444 3477 3538 3566 3582 3597 3598 3620 3619 3618 3623 3663 3723 3721 3734 3727 3716 3719 3716 3718 3734 3732 3775 3772 3771 3750 3734 3728 3699 3678 3661 3632 3637 3637 3672 3691 3771 3870 3907 3984 4058 4132 4142 4157 4183 4191 4220 4215 4230 4226 4202 4169 4151 4133 4107 4085 4049 4015 3994 3989 3961 3942 3922 3895 3875 3853 3827 3754 3708 3695 3647 3616 3548 3498 3484 3455 3439 3417 3400 3377 3335 3281 3240 3212 3183 3143 3103 3075 3053 3032 3028 
3231 3238 3245 3257 3275 3285 3303 3319 3335 3345 3365 3388 3435 3470 3531 3558 3580 3579 3588 3593 3586 3585 3587 3617 3662 3717 3718 3714 3702 3695 3691 3654 3660 3656 3723 3718 3733 3726 3727 3722 3710 3695 3672 3667 3656 3691 3713 3746 3834 3905 3936 3982 4059 4112 4134 4144 4157 4185 4195 4218 4228 4212 4203 4172 4151 4140 4108 4094 4061 4043 4009 4000 3986 3977 3981 3955 3914 3893 3858 3823 3752 3715 3699 3673 3628 3581 3524 3500 3471 3443 3406 3392 3384 3328 3280 3249 3217 3169 3140 3095 3071 3041 3041 
3225 3230 3235 3244 3259 3276 3283 3295 3308 3327 3342 3377 3430 3470 3506 3546 3553 3574 3565 3570 3570 3548 3551 3566 3580 3637 3677 3677 3671 3651 3648 3634 3637 3641 3652 3686 3699 3718 3714 3722 3712 3699 3691 3699 3704 3721 3741 3765 3859 3891 3933 3973 4002 4060 4115 4127 4147 4142 4170 4190 4197 4208 4200 4168 4147 4127 4103 4088 4059 4040 4021 4015 4012 4016 4002 3988 3974 3959 3936 3854 3791 3753 3723 3713 3670 3629 3580 3538 3499 3469 3446 3412 3398 3389 3367 3347 3259 3221 3180 3147 3087 3082 3045 
3221 3223 3224 3230 3239 3255 3267 3278 3295 3310 3331 3367 3412 3452 3509 3508 3548 3541 3535 3517 3507 3501 3541 3542 3553 3568 3580 3592 3600 3597 3591 3604 3616 3633 3647 3659 3693 3688 3702 3716 3711 3701 3697 3697 3735 3751 3767 3797 3848 3899 3924 3940 3953 3970 4047 4045 4084 4094 4106 4177 4197 4202 4179 4163 4149 4119 4095 4074 4060 4039 4025 4019 4016 4020 4011 3998 3985 3972 3963 3942 3822 3789 3787 3754 3715 3669 3624 3577 3542 3496 3476 3447 3413 3401 3401 3375 3342 3254 3230 3184 3152 3090 3070 
3214 3215 3217 3221 3228 3230 3244 3260 3271 3298 3321 3363 3408 3440 3467 3504 3498 3501 3510 3508 3499 3497 3505 3534 3541 3551 3553 3556 3565 3560 3563 3576 3576 3582 3624 3635 3638 3672 3695 3702 3699 3699 3698 3734 3763 3765 3778 3806 3857 3875 3890 3913 3926 3941 3968 4005 4027 4028 4068 4074 4176 4176 4169 4142 4134 4105 4089 4066 4045 4026 4017 4018 4024 4019 4010 3994 3992 3982 3974 3959 3891 3828 3808 3788 3750 3698 3664 3604 3574 3533 3507 3480 3452 3450 3413 3390 3364 3333 3252 3228 3191 3140 3128 
3206 3207 3212 3216 3219 3221 3231 3247 3263 3283 3316 3361 3367 3411 3440 3457 3459 3467 3467 3441 3437 3492 3491 3534 3527 3540 3543 3533 3537 3527 3533 3533 3546 3558 3573 3581 3625 3644 3672 3682 3695 3702 3716 3736 3777 3777 3786 3815 3837 3861 3865 3888 3902 3928 3945 3957 3990 4014 4024 4059 4081 4110 4136 4141 4098 4084 4064 4050 4025 4008 4012 4014 4012 4005 3992 3989 3980 3977 3969 3966 3894 3867 3834 3803 3771 3740 3693 3664 3608 3570 3535 3498 3480 3464 3454 3430 3415 3381 3344 3254 3252 3224 3218 
3202 3204 3208 3212 3215 3217 3224 3241 3258 3278 3311 3338 3357 3381 3406 3409 3421 3415 3417 3413 3425 3441 3474 3495 3535 3529 3522 3509 3502 3496 3495 3501 3515 3543 3555 3578 3586 3610 3627 3666 3686 3681 3709 3747 3751 3768 3780 3798 3826 3833 3838 3834 3881 3901 3916 3934 3958 3991 4021 4020 4047 4074 4078 4072 4061 4049 4029 4009 4001 4002 3992 3989 3982 3974 3971 3969 3964 3963 3958 3916 3898 3867 3830 3812 3780 3757 3723 3687 3636 3599 3566 3528 3505 3492 3496 3494 3455 3424 3392 3353 3284 3267 3239 
3201 3203 3206 3208 3210 3215 3221 3226 3264 3273 3304 3323 3348 3364 3368 3371 3373 3377 3373 3370 3369 3420 3434 3467 3477 3482 3481 3472 3472 3468 3465 3476 3505 3520 3541 3577 3583 3582 3583 3588 3606 3659 3701 3721 3743 3751 3776 3784 3785 3781 3774 3787 3783 3839 3903 3922 3916 3943 3943 3952 4008 4027 4032 4026 4016 3993 3986 3988 3976 3966 3959 3949 3941 3938 3937 3936 3938 3932 3903 3895 3868 3844 3821 3809 3777 3759 3740 3703 3658 3623 3595 3573 3547 3533 3523 3522 3516 3467 3442 3387 3384 3336 3281 
3198 3200 3201 3203 3208 3215 3219 3219 3270 3295 3301 3325 3334 3350 3351 3348 3348 3348 3343 3345 3337 3346 3422 3427 3429 3433 3429 3425 3421 3420 3434 3451 3481 3504 3525 3537 3571 3578 3586 3579 3586 3612 3685 3698 3719 3720 3725 3729 3725 3731 3721 3724 3757 3767 3832 3847 3887 3880 3892 3888 3921 3932 3959 3983 3980 3972 3965 3953 3944 3929 3921 3916 3911 3900 3889 3885 3878 3881 3860 3838 3835 3819 3813 3779 3759 3734 3733 3698 3669 3649 3622 3594 3568 3558 3557 3545 3532 3514 3463 3442 3425 3386 3356 
3195 3197 3199 3200 3202 3209 3213 3272 3287 3297 3302 3314 3333 3332 3332 3333 3334 3333 3327 3325 3325 3328 3337 3337 3388 3381 3380 3377 3381 3387 3400 3414 3439 3459 3473 3494 3523 3529 3540 3551 3566 3592 3611 3680 3678 3673 3674 3682 3682 3681 3692 3687 3708 3735 3761 3811 3821 3839 3843 3853 3866 3881 3914 3939 3942 3933 3909 3889 3876 3864 3865 3861 3855 3847 3838 3829 3817 3793 3790 3790 3791 3788 3781 3757 3725 3731 3705 3687 3674 3649 3632 3626 3595 3590 3571 3561 3550 3531 3502 3455 3449 3425 3404 
3195 3198 3200 3202 3202 3204 3249 3264 3288 3306 3310 3312 3314 3313 3313 3309 3306 3313 3306 3305 3305 3307 3300 3296 3296 3357 3360 3354 3350 3348 3357 3375 3394 3427 3431 3455 3477 3490 3517 3516 3525 3540 3554 3610 3634 3631 3631 3632 3640 3652 3657 3669 3686 3704 3739 3755 3804 3811 3804 3805 3813 3837 3846 3865 3865 3863 3860 3846 3837 3831 3826 3815 3810 3797 3782 3771 3757 3748 3738 3736 3729 3717 3719 3702 3708 3695 3692 3674 3656 3647 3632 3622 3609 3600 3583 3583 3566 3545 3510 3500 3469 3453 3425 
3199 3202 3204 3206 3213 3233 3280 3261 3292 3311 3307 3306 3305 3296 3288 3284 3281 3277 3271 3264 3268 3280 3286 3289 3288 3290 3317 3310 3306 3320 3332 3332 3355 3372 3393 3416 3428 3435 3472 3477 3484 3518 3523 3554 3595 3610 3606 3602 3612 3620 3635 3640 3644 3681 3690 3696 3761 3778 3784 3779 3773 3773 3788 3792 3785 3798 3809 3805 3802 3800 3788 3779 3771 3756 3740 3728 3714 3701 3691 3681 3675 3666 3657 3648 3649 3651 3649 3646 3644 3629 3627 3615 3607 3606 3594 3588 3580 3559 3532 3509 3499 3489 3481 
3208 3211 3216 3222 3237 3272 3284 3300 3311 3298 3303 3296 3289 3284 3272 3262 3253 3246 3235 3240 3263 3271 3273 3278 3279 3275 3282 3283 3287 3292 3299 3310 3338 3358 3367 3374 3385 3398 3411 3426 3440 3474 3488 3525 3554 3584 3577 3578 3573 3587 3584 3593 3604 3623 3657 3670 3682 3683 3721 3743 3743 3738 3749 3763 3764 3757 3762 3775 3782 3771 3759 3747 3738 3717 3708 3687 3672 3660 3651 3643 3637 3633 3628 3623 3624 3619 3620 3613 3612 3606 3609 3606 3604 3598 3593 3583 3575 3573 3564 3534 3529 3533 3531 
3218 3225 3235 3262 3281 3293 3302 3304 3305 3300 3293 3282 3277 3271 3258 3243 3233 3230 3223 3228 3231 3230 3234 3246 3266 3276 3279 3279 3277 3282 3288 3302 3309 3330 3361 3361 3366 3383 3380 3395 3408 3423 3436 3460 3524 3531 3538 3538 3540 3541 3544 3544 3552 3567 3586 3609 3616 3641 3660 3683 3681 3683 3682 3674 3671 3668 3722 3725 3730 3726 3722 3705 3691 3677 3670 3655 3645 3635 3628 3617 3606 3596 3586 3583 3583 3579 3578 3581 3578 3569 3570 3570 3572 3573 3570 3571 3570 3568 3561 3561 3566 3568 3555 
3225 3237 3260 3281 3302 3314 3313 3305 3297 3293 3287 3275 3260 3249 3235 3223 3218 3213 3211 3208 3209 3214 3216 3230 3234 3236 3250 3257 3257 3264 3272 3279 3298 3318 3325 3337 3347 3355 3353 3363 3384 3396 3413 3419 3445 3474 3500 3508 3507 3511 3516 3511 3521 3540 3552 3566 3583 3602 3616 3620 3618 3611 3608 3613 3614 3609 3634 3693 3700 3691 3684 3675 3660 3657 3649 3636 3623 3611 3592 3583 3571 3561 3555 3551 3549 3547 3550 3551 3551 3552 3557 3559 3557 3558 3559 3562 3561 3554 3566 3572 3571 3573 3576 
3245 3258 3283 3304 3312 3318 3312 3303 3291 3283 3278 3267 3252 3233 3220 3214 3205 3197 3193 3189 3190 3185 3194 3201 3215 3220 3226 3223 3227 3238 3251 3266 3284 3301 3316 3332 3344 3352 3355 3346 3365 3375 3390 3402 3422 3437 3445 3462 3460 3469 3477 3481 3479 3498 3521 3537 3567 3570 3586 3593 3592 3592 3594 3597 3592 3598 3598 3638 3650 3659 3653 3651 3644 3639 3628 3614 3594 3581 3545 3531 3523 3519 3515 3512 3503 3501 3513 3513 3523 3525 3528 3532 3536 3543 3548 3553 3554 3556 3552 3572 3572 3576 3582 
3277 3291 3301 3309 3316 3318 3311 3293 3275 3265 3253 3239 3230 3213 3204 3198 3188 3183 3178 3172 3173 3170 3172 3177 3189 3195 3199 3200 3211 3215 3227 3254 3248 3303 3316 3319 3334 3337 3339 3345 3339 3357 3359 3369 3383 3398 3408 3414 3423 3423 3432 3442 3471 3472 3479 3475 3490 3521 3539 3560 3564 3560 3563 3562 3564 3585 3586 3587 3606 3632 3630 3628 3621 3617 3605 3588 3564 3544 3520 3501 3488 3484 3477 3475 3476 3473 3469 3473 3481 3490 3491 3497 3511 3508 3527 3541 3546 3552 3556 3565 3580 3579 3584 
3297 3300 3305 3305 3309 3306 3296 3267 3245 3235 3222 3212 3204 3197 3189 3182 3178 3173 3167 3162 3149 3155 3161 3160 3168 3177 3182 3191 3185 3194 3213 3222 3244 3255 3306 3310 3315 3317 3316 3304 3310 3317 3351 3365 3363 3362 3375 3382 3389 3400 3412 3416 3430 3442 3448 3457 3467 3476 3509 3521 3527 3530 3531 3533 3540 3544 3555 3567 3572 3602 3608 3603 3598 3587 3578 3563 3545 3525 3502 3472 3461 3467 3459 3456 3453 3452 3451 3448 3449 3456 3459 3460 3461 3472 3495 3526 3542 3559 3562 3568 3567 3574 3582 
3306 3309 3311 3312 3310 3291 3259 3241 3236 3230 3217 3204 3192 3180 3171 3170 3165 3154 3147 3142 3140 3139 3138 3143 3152 3161 3168 3174 3171 3168 3190 3191 3195 3249 3260 3294 3292 3296 3293 3287 3286 3293 3292 3300 3305 3330 3332 3344 3347 3356 3373 3386 3401 3407 3415 3419 3435 3461 3479 3472 3479 3480 3476 3498 3501 3508 3519 3530 3550 3553 3560 3561 3562 3560 3551 3534 3524 3502 3466 3445 3431 3429 3426 3422 3416 3408 3412 3413 3413 3425 3429 3422 3432 3445 3466 3482 3509 3526 3552 3557 3560 3563 3560 
3310 3311 3313 3315 3312 3286 3247 3232 3231 3227 3215 3200 3185 3172 3158 3149 3146 3139 3135 3129 3126 3123 3124 3128 3138 3148 3151 3152 3149 3157 3153 3157 3176 3203 3203 3252 3260 3265 3266 3264 3266 3271 3268 3263 3257 3255 3268 3291 3327 3334 3330 3345 3358 3379 3386 3398 3403 3418 3430 3439 3442 3446 3452 3452 3457 3466 3483 3501 3517 3525 3532 3537 3539 3533 3530 3523 3490 3431 3418 3402 3400 3398 3396 3394 3388 3380 3378 3375 3370 3378 3397 3420 3424 3415 3417 3439 3466 3513 3533 3536 3543 3553 3552 
3307 3309 3304 3292 3266 3213 3186 3199 3204 3203 3198 3182 3167 3152 3144 3142 3137 3136 3124 3114 3112 3110 3114 3118 3125 3131 3135 3135 3131 3137 3146 3138 3145 3174 3184 3201 3206 3238 3245 3250 3252 3254 3252 3245 3241 3236 3231 3245 3260 3303 3316 3315 3325 3354 3352 3357 3368 3377 3392 3410 3415 3418 3423 3430 3440 3451 3457 3475 3491 3495 3515 3519 3516 3511 3492 3469 3436 3408 3393 3389 3384 3377 3373 3366 3362 3360 3355 3355 3355 3355 3361 3384 3381 3373 3379 3395 3423 3442 3461 3488 3513 3518 3520 
3298 3294 3277 3235 3198 3191 3182 3175 3166 3155 3160 3158 3145 3135 3131 3128 3123 3120 3107 3100 3096 3099 3102 3107 3111 3116 3122 3121 3120 3117 3124 3131 3125 3132 3138 3158 3172 3181 3195 3209 3214 3218 3218 3219 3218 3217 3229 3225 3230 3228 3280 3282 3306 3317 3327 3335 3342 3358 3354 3373 3383 3385 3392 3386 3401 3407 3424 3418 3433 3430 3476 3478 3475 3478 3460 3443 3410 3386 3378 3371 3363 3357 3350 3343 3341 3334 3335 3335 3334 3335 3337 3336 3328 3334 3340 3372 3385 3405 3433 3456 3474 3490 3495 
3289 3276 3245 3219 3203 3191 3188 3182 3171 3160 3148 3135 3120 3112 3113 3110 3104 3099 3094 3087 3085 3088 3091 3095 3098 3100 3105 3107 3106 3107 3105 3099 3100 3104 3108 3112 3117 3124 3135 3148 3159 3165 3170 3172 3184 3184 3194 3215 3213 3210 3208 3261 3276 3281 3281 3281 3300 3303 3316 3319 3340 3351 3357 3362 3366 3373 3363 3361 3374 3419 3415 3430 3439 3436 3441 3403 3391 3370 3352 3344 3337 3331 3326 3319 3316 3314 3314 3312 3311 3310 3312 3317 3315 3325 3331 3344 3365 3381 3400 3435 3444 3455 3465 
3277 3263 3241 3213 3192 3185 3179 3176 3172 3161 3152 3132 3112 3102 3092 3090 3094 3090 3085 3077 3076 3078 3082 3085 3085 3085 3086 3089 3091 3092 3090 3083 3084 3083 3088 3094 3100 3103 3110 3119 3127 3139 3148 3151 3153 3162 3165 3157 3155 3175 3178 3190 3203 3247 3250 3252 3255 3256 3263 3268 3296 3294 3313 3321 3327 3343 3347 3350 3366 3377 3410 3419 3412 3417 3406 3384 3366 3349 3339 3328 3319 3310 3305 3300 3298 3296 3295 3295 3291 3289 3300 3308 3307 3313 3324 3333 3332 3369 3391 3406 3425 3438 3445 
