ncols        212
nrows        89
xllcorner    12.02875
yllcorner    1396.32208333
cellsize     30
1726 1751 1770 1793 1810 1827 1853 1873 1893 1918 1944 1971 2002 2062 2090 2109 2135 2149 2153 2154 2143 2143 2140 2140 2130 2097 2092 2094 2089 2085 2082 2084 2098 2109 2120 2119 2122 2128 2137 2141 2143 2149 2153 2161 2173 2179 2186 2190 2204 2214 2209 2234 2239 2246 2247 2252 2253 2257 2262 2272 2301 2331 2349 2357 2369 2379 2391 2406 2425 2441 2454 2463 2488 2509 2553 2589 2620 2630 2648 2658 2664 2665 2666 2670 2669 2662 2644 2625 2606 2567 2518 2483 2455 2423 2394 2382 2380 2376 2368 2359 2359 2354 2349 2351 2353 2359 2359 2356 2344 2336 2305 2295 2274 2258 2242 2231 2223 2201 2187 2172 2166 2162 2161 2158 2158 2159 2158 2166 2172 2183 2194 2216 2231 2240 2249 2251 2257 2244 2242 2225 2219 2192 2183 2185 2192 2185 2184 2214 2226 2240 2261 2262 2246 2251 2228 2206 2176 2155 2154 2134 2127 2083 2057 2042 1996 1922 1885 1827 1811 1802 1795 1788 1778 1758 1752 1742 1733 1724 1724 1722 1713 1707 1703 1700 1689 1676 1680 1677 1684 1685 1694 1708 1712 1717 1719 1723 1727 1732 1736 1740 1745 1745 1746 1749 1753 1756 1759 1762 1763 1769 1774 1782
1725 1753 1784 1813 1831 1857 1878 1891 1914 1930 1953 1977 1994 2016 2054 2104 2153 2173 2200 2196 2193 2182 2168 2171 2159 2165 2125 2120 2117 2108 2112 2116 2130 2129 2148 2141 2144 2141 2152 2156 2159 2164 2167 2176 2183 2191 2196 2197 2216 2226 2232 2238 2240 2245 2251 2256 2259 2263 2270 2281 2304 2326 2352 2368 2378 2382 2394 2409 2425 2439 2452 2472 2493 2517 2556 2584 2624 2649 2654 2662 2669 2667 2669 2680 2687 2672 2655 2634 2622 2592 2562 2517 2480 2461 2425 2426 2401 2386 2377 2369 2359 2352 2355 2356 2352 2352 2348 2348 2337 2320 2304 2290 2272 2251 2241 2222 2202 2186 2174 2165 2160 2156 2153 2150 2149 2150 2151 2152 2156 2168 2183 2190 2203 2201 2190 2195 2173 2166 2155 2149 2149 2114 2113 2114 2141 2122 2125 2128 2194 2206 2206 2220 2214 2194 2183 2162 2151 2118 2111 2113 2070 2039 2047 1970 1923 1888 1837 1813 1795 1790 1793 1784 1772 1764 1759 1746 1733 1728 1726 1723 1714 1714 1702 1700 1688 1684 1668 1674 1675 1667 1679 1694 1706 1710 1716 1720 1726 1732 1737 1740 1739 1739 1742 1745 1748 1750 1753 1756 1762 1768 1771 1782
1708 1742 1787 1814 1841 1866 1884 1909 1913 1943 1964 1971 1986 2001 2052 2102 2177 2209 2218 2220 2229 2227 2216 2208 2215 2207 2205 2185 2166 2158 2153 2156 2154 2152 2152 2181 2184 2189 2185 2185 2181 2189 2190 2200 2209 2213 2214 2218 2227 2229 2234 2242 2244 2251 2259 2262 2264 2270 2275 2286 2303 2323 2343 2361 2377 2388 2401 2420 2432 2450 2462 2484 2502 2517 2557 2582 2618 2648 2666 2671 2672 2666 2672 2704 2699 2692 2674 2661 2628 2624 2596 2569 2520 2477 2457 2452 2422 2399 2390 2372 2354 2348 2352 2352 2349 2346 2343 2335 2332 2319 2310 2299 2277 2260 2237 2207 2190 2179 2170 2163 2159 2153 2149 2143 2143 2144 2145 2146 2147 2152 2153 2171 2172 2166 2138 2117 2105 2098 2095 2095 2083 2079 2079 2095 2115 2118 2090 2088 2071 2075 2133 2129 2162 2157 2145 2124 2099 2094 2072 2047 2016 2018 1965 1914 1877 1832 1797 1784 1774 1774 1780 1770 1766 1763 1747 1737 1723 1717 1718 1711 1711 1708 1700 1690 1683 1680 1671 1664 1673 1672 1682 1695 1704 1709 1714 1719 1725 1732 1736 1736 1735 1735 1739 1744 1746 1747 1749 1756 1761 1763 1766 1773
1697 1737 1777 1815 1844 1862 1882 1899 1912 1935 1961 1963 1980 2006 2041 2090 2181 2213 2222 2237 2241 2264 2255 2242 2240 2244 2240 2240 2208 2191 2192 2183 2180 2180 2181 2228 2231 2221 2226 2229 2231 2234 2237 2230 2227 2229 2236 2252 2257 2247 2254 2253 2257 2260 2266 2268 2274 2279 2284 2296 2308 2315 2335 2359 2377 2394 2413 2429 2447 2462 2484 2498 2512 2526 2559 2583 2618 2665 2674 2680 2676 2678 2719 2722 2729 2733 2687 2683 2660 2647 2635 2602 2541 2513 2488 2459 2445 2412 2399 2380 2367 2354 2354 2350 2344 2340 2339 2335 2330 2318 2314 2303 2291 2259 2219 2195 2184 2172 2162 2160 2152 2147 2143 2144 2144 2142 2140 2137 2136 2133 2122 2116 2112 2088 2070 2057 2045 2046 2042 2046 2040 2050 2049 2045 2045 2053 2057 2041 2034 2062 2063 2107 2128 2126 2114 2091 2059 2031 2000 1992 1957 1932 1898 1860 1812 1771 1775 1765 1758 1756 1757 1764 1752 1744 1732 1718 1712 1703 1698 1686 1688 1683 1681 1679 1678 1671 1671 1669 1670 1679 1690 1696 1703 1707 1711 1715 1721 1728 1730 1730 1730 1733 1738 1741 1743 1743 1745 1747 1750 1755 1759 1764
1647 1768 1777 1805 1828 1835 1874 1887 1908 1922 1945 1965 1968 1978 2047 2088 2134 2190 2223 2243 2265 2270 2275 2275 2278 2268 2255 2269 2261 2248 2235 2226 2226 2230 2252 2251 2251 2249 2242 2243 2247 2249 2256 2247 2250 2257 2269 2288 2284 2282 2277 2273 2268 2267 2268 2273 2281 2282 2292 2306 2316 2323 2338 2357 2377 2386 2413 2435 2458 2473 2491 2511 2526 2539 2575 2592 2638 2668 2687 2708 2717 2734 2753 2763 2759 2760 2731 2687 2691 2680 2651 2635 2613 2546 2519 2477 2451 2433 2414 2394 2364 2355 2343 2342 2339 2337 2334 2333 2330 2324 2311 2299 2284 2262 2223 2190 2174 2164 2159 2153 2145 2144 2145 2145 2142 2137 2134 2126 2121 2113 2097 2081 2073 2045 2020 2006 2000 1996 1992 1988 1990 1984 1964 1965 1980 1991 1988 2016 2031 2027 2053 2071 2104 2098 2094 2066 2020 1987 1955 1931 1898 1856 1847 1803 1762 1741 1743 1748 1747 1747 1739 1728 1716 1711 1705 1701 1694 1680 1668 1663 1660 1659 1658 1664 1667 1664 1663 1648 1663 1679 1690 1696 1701 1703 1704 1708 1714 1720 1722 1723 1725 1728 1732 1734 1734 1735 1736 1739 1743 1749 1753 1760
1649 1688 1800 1809 1821 1831 1841 1863 1883 1901 1928 1946 1964 1978 2027 2083 2132 2177 2201 2226 2269 2277 2278 2289 2293 2294 2281 2281 2279 2294 2270 2259 2260 2267 2269 2268 2263 2256 2251 2251 2247 2253 2255 2262 2265 2277 2289 2303 2297 2296 2293 2286 2279 2274 2273 2271 2284 2290 2301 2310 2316 2333 2347 2360 2371 2386 2424 2448 2467 2488 2501 2516 2530 2567 2594 2634 2668 2685 2706 2718 2741 2771 2777 2781 2785 2766 2764 2735 2711 2696 2676 2656 2645 2636 2552 2527 2473 2447 2430 2398 2387 2365 2348 2344 2334 2330 2329 2326 2323 2320 2311 2298 2281 2253 2217 2183 2168 2160 2154 2145 2140 2146 2145 2139 2129 2120 2111 2099 2095 2087 2077 2063 2033 2007 1993 1989 1977 1964 1957 1942 1944 1941 1949 1938 1941 1950 1965 1979 2016 2018 2024 2029 2059 2066 2053 2016 1973 1940 1928 1874 1852 1831 1794 1762 1748 1728 1729 1729 1729 1727 1719 1705 1697 1693 1691 1682 1671 1663 1654 1648 1646 1638 1639 1643 1647 1649 1622 1644 1665 1682 1690 1696 1694 1695 1699 1702 1705 1709 1713 1716 1719 1722 1725 1726 1727 1728 1731 1734 1740 1748 1756 1764
1674 1739 1787 1795 1805 1823 1834 1843 1849 1886 1903 1932 1942 1974 2028 2087 2134 2161 2177 2204 2257 2266 2279 2288 2299 2302 2303 2295 2294 2305 2298 2297 2297 2297 2283 2278 2263 2257 2256 2252 2257 2251 2255 2259 2276 2284 2300 2321 2315 2309 2304 2299 2294 2292 2290 2293 2303 2303 2316 2325 2336 2347 2359 2379 2377 2392 2436 2463 2486 2500 2519 2520 2568 2597 2619 2668 2681 2710 2712 2725 2771 2777 2789 2805 2798 2784 2763 2757 2738 2718 2707 2689 2666 2657 2637 2548 2524 2469 2434 2434 2397 2380 2371 2351 2340 2332 2331 2331 2325 2318 2312 2297 2277 2259 2218 2179 2162 2150 2145 2140 2140 2138 2130 2125 2113 2100 2093 2086 2074 2062 2050 2033 2004 1994 1984 1974 1961 1947 1944 1933 1919 1917 1906 1900 1894 1910 1953 1961 1975 1989 2008 2007 2004 1987 1957 1941 1916 1890 1877 1860 1798 1741 1719 1719 1718 1715 1715 1711 1710 1706 1696 1693 1683 1677 1673 1668 1656 1653 1644 1636 1634 1627 1625 1636 1636 1614 1628 1649 1665 1678 1686 1688 1688 1690 1693 1696 1698 1699 1703 1707 1711 1714 1718 1721 1723 1728 1731 1735 1740 1743 1751 1759
1717 1774 1779 1788 1801 1816 1832 1842 1850 1863 1886 1904 1941 1978 2038 2079 2139 2159 2166 2185 2218 2251 2266 2276 2287 2295 2296 2296 2296 2309 2312 2313 2309 2302 2305 2287 2279 2262 2255 2254 2245 2246 2253 2260 2269 2285 2306 2347 2344 2329 2324 2314 2314 2312 2308 2312 2313 2323 2331 2341 2350 2360 2371 2381 2405 2405 2443 2477 2491 2506 2523 2539 2577 2605 2639 2663 2706 2714 2723 2735 2768 2784 2798 2806 2803 2791 2766 2759 2745 2732 2716 2703 2689 2677 2660 2605 2555 2516 2484 2439 2432 2410 2392 2373 2361 2354 2348 2342 2339 2332 2320 2306 2269 2259 2216 2179 2151 2138 2136 2138 2133 2127 2117 2108 2097 2087 2078 2067 2054 2039 2023 2008 2001 1992 1982 1966 1945 1937 1933 1924 1912 1891 1881 1865 1867 1867 1902 1909 1925 1981 1975 1963 1957 1941 1903 1867 1854 1861 1853 1779 1747 1720 1714 1702 1702 1700 1697 1689 1686 1684 1676 1676 1676 1668 1666 1663 1656 1645 1631 1627 1627 1626 1622 1629 1634 1631 1646 1653 1661 1668 1676 1680 1683 1687 1688 1686 1686 1691 1695 1700 1705 1711 1716 1720 1723 1726 1731 1736 1737 1738 1742 1751
1702 1774 1779 1789 1799 1810 1830 1837 1850 1864 1887 1910 1931 1968 2049 2115 2130 2147 2164 2184 2208 2228 2246 2258 2267 2276 2279 2285 2287 2305 2312 2320 2312 2313 2303 2287 2276 2261 2250 2246 2248 2246 2243 2250 2259 2274 2305 2391 2378 2367 2362 2359 2350 2348 2336 2338 2338 2343 2347 2353 2361 2370 2386 2403 2409 2437 2466 2484 2500 2516 2532 2550 2581 2613 2637 2662 2699 2711 2726 2744 2761 2792 2801 2805 2802 2791 2776 2763 2749 2738 2729 2718 2703 2690 2677 2609 2566 2533 2487 2477 2471 2449 2426 2405 2384 2375 2367 2360 2356 2345 2336 2313 2266 2239 2194 2157 2137 2128 2128 2119 2117 2114 2105 2094 2085 2073 2060 2052 2037 2022 2002 1994 1986 1982 1973 1955 1943 1927 1916 1907 1888 1886 1868 1859 1847 1852 1861 1872 1877 1891 1891 1901 1895 1885 1873 1860 1837 1817 1784 1742 1729 1704 1693 1691 1688 1686 1676 1671 1665 1660 1662 1660 1658 1655 1650 1648 1646 1626 1622 1616 1617 1614 1618 1630 1633 1641 1646 1654 1662 1665 1665 1668 1674 1678 1676 1674 1675 1682 1692 1699 1707 1713 1718 1721 1720 1721 1725 1731 1733 1735 1742 1750
1686 1755 1774 1782 1796 1821 1831 1838 1848 1865 1897 1908 1918 1949 2056 2114 2108 2143 2164 2178 2193 2209 2219 2227 2239 2245 2254 2262 2270 2281 2296 2313 2314 2306 2305 2292 2272 2259 2248 2248 2246 2239 2237 2245 2254 2273 2310 2339 2403 2393 2387 2387 2383 2376 2370 2369 2364 2363 2367 2367 2375 2386 2399 2407 2419 2440 2462 2486 2507 2531 2550 2565 2578 2616 2641 2655 2679 2708 2722 2749 2767 2789 2801 2803 2794 2788 2782 2761 2749 2734 2727 2714 2704 2695 2680 2612 2555 2538 2500 2480 2481 2475 2456 2428 2418 2406 2390 2376 2370 2360 2335 2290 2250 2193 2174 2142 2123 2109 2110 2106 2104 2098 2089 2081 2072 2061 2046 2034 2022 2004 1993 1988 1976 1962 1952 1941 1932 1917 1909 1890 1879 1870 1860 1846 1838 1841 1825 1829 1828 1836 1829 1824 1839 1835 1827 1816 1792 1774 1756 1742 1707 1691 1681 1677 1681 1676 1668 1662 1662 1663 1660 1651 1644 1646 1632 1631 1621 1619 1600 1603 1608 1610 1627 1627 1629 1633 1643 1655 1656 1653 1651 1650 1654 1661 1666 1665 1667 1679 1697 1708 1711 1714 1717 1717 1717 1716 1724 1730 1734 1740 1746 1754
1599 1692 1757 1767 1792 1809 1833 1830 1840 1859 1890 1909 1919 1922 1947 2030 2026 2106 2134 2149 2164 2180 2185 2195 2205 2215 2225 2226 2241 2264 2276 2289 2303 2311 2291 2287 2277 2255 2247 2245 2243 2243 2254 2254 2256 2276 2312 2338 2355 2379 2390 2383 2399 2388 2390 2377 2375 2380 2383 2389 2393 2402 2410 2416 2436 2453 2480 2502 2517 2540 2546 2559 2591 2613 2632 2654 2684 2703 2708 2729 2769 2771 2786 2798 2792 2781 2766 2745 2737 2726 2714 2710 2702 2674 2615 2586 2545 2531 2501 2492 2482 2480 2470 2458 2432 2416 2407 2394 2375 2367 2333 2269 2222 2178 2156 2121 2106 2109 2096 2096 2093 2086 2079 2072 2061 2050 2038 2026 2013 2004 1994 1983 1965 1943 1930 1920 1913 1906 1891 1878 1870 1862 1853 1840 1830 1819 1813 1800 1793 1790 1786 1778 1769 1771 1778 1768 1764 1758 1746 1709 1689 1675 1665 1659 1653 1654 1654 1658 1659 1653 1646 1641 1637 1636 1629 1626 1616 1608 1601 1600 1601 1608 1616 1618 1622 1632 1642 1648 1646 1640 1637 1638 1640 1643 1651 1660 1663 1673 1694 1708 1710 1714 1716 1718 1718 1723 1730 1734 1737 1744 1749 1751
1622 1647 1719 1748 1767 1786 1799 1815 1830 1850 1879 1905 1913 1916 1928 1957 1999 2070 2108 2119 2137 2153 2158 2165 2176 2183 2186 2190 2198 2242 2251 2260 2263 2275 2285 2279 2266 2259 2250 2247 2249 2253 2257 2270 2273 2277 2299 2326 2351 2362 2370 2385 2394 2397 2393 2388 2380 2375 2382 2394 2405 2419 2427 2449 2449 2470 2486 2506 2520 2538 2551 2568 2599 2633 2637 2654 2673 2703 2702 2728 2742 2770 2773 2780 2770 2769 2731 2715 2689 2668 2659 2645 2638 2608 2579 2544 2527 2500 2491 2486 2487 2471 2463 2457 2442 2418 2410 2392 2374 2361 2301 2250 2196 2163 2139 2115 2106 2089 2085 2082 2079 2071 2066 2061 2052 2044 2032 2021 2012 1999 1988 1972 1948 1931 1919 1911 1900 1889 1876 1866 1857 1850 1840 1830 1823 1816 1803 1784 1772 1762 1756 1760 1749 1745 1750 1741 1734 1726 1705 1681 1660 1649 1642 1640 1639 1641 1644 1645 1644 1642 1634 1631 1629 1626 1621 1616 1611 1604 1602 1598 1599 1600 1607 1615 1625 1631 1640 1642 1636 1630 1627 1626 1627 1631 1635 1647 1657 1670 1687 1700 1706 1710 1714 1719 1725 1729 1734 1736 1740 1744 1746 1747
1630 1659 1705 1730 1745 1760 1774 1787 1812 1843 1867 1891 1904 1911 1923 1952 1988 2078 2099 2111 2121 2133 2138 2144 2151 2159 2161 2166 2174 2183 2166 2173 2176 2202 2218 2236 2247 2256 2253 2249 2250 2249 2260 2271 2270 2278 2295 2318 2330 2344 2352 2359 2392 2389 2386 2385 2376 2380 2383 2398 2413 2435 2458 2464 2481 2482 2491 2511 2526 2540 2566 2581 2610 2643 2655 2656 2667 2696 2700 2721 2745 2752 2766 2768 2742 2702 2686 2664 2637 2588 2585 2587 2559 2534 2509 2482 2471 2464 2469 2458 2461 2458 2454 2451 2427 2411 2403 2387 2378 2336 2266 2216 2194 2143 2133 2112 2083 2076 2063 2062 2061 2056 2051 2045 2042 2035 2030 2011 2000 1987 1974 1955 1931 1918 1909 1899 1888 1877 1866 1854 1843 1830 1818 1804 1799 1796 1776 1761 1749 1736 1744 1751 1750 1733 1736 1711 1702 1693 1670 1651 1638 1631 1623 1627 1634 1634 1634 1630 1630 1628 1621 1615 1609 1606 1605 1607 1604 1604 1603 1602 1596 1599 1603 1613 1624 1630 1630 1628 1622 1617 1613 1612 1616 1621 1635 1647 1657 1671 1687 1697 1702 1707 1710 1718 1728 1732 1733 1736 1740 1742 1743 1744
1629 1661 1694 1714 1725 1743 1755 1769 1790 1825 1853 1874 1890 1898 1914 1933 1950 2004 2086 2103 2108 2118 2122 2125 2129 2137 2142 2147 2153 2160 2146 2158 2154 2165 2165 2170 2182 2200 2194 2204 2222 2236 2250 2255 2273 2272 2280 2307 2318 2318 2332 2333 2336 2345 2346 2349 2353 2375 2383 2402 2414 2433 2455 2465 2486 2489 2498 2511 2520 2549 2561 2582 2610 2635 2651 2655 2655 2661 2701 2726 2730 2740 2741 2713 2695 2672 2654 2625 2589 2546 2499 2469 2456 2433 2419 2424 2436 2429 2421 2420 2410 2402 2403 2412 2409 2403 2394 2378 2362 2324 2300 2231 2183 2137 2111 2092 2079 2068 2065 2060 2057 2050 2040 2036 2033 2026 2016 2005 1982 1970 1959 1934 1911 1902 1896 1881 1872 1867 1856 1841 1823 1813 1799 1782 1768 1755 1749 1739 1716 1713 1709 1708 1697 1697 1689 1681 1671 1654 1619 1610 1609 1605 1608 1610 1609 1612 1615 1616 1615 1612 1609 1605 1597 1594 1594 1594 1597 1600 1591 1588 1590 1594 1603 1609 1616 1623 1617 1609 1603 1600 1597 1600 1608 1613 1627 1646 1658 1671 1685 1695 1703 1708 1712 1718 1727 1731 1733 1735 1739 1742 1742 1742
1616 1653 1672 1696 1708 1723 1743 1755 1776 1809 1842 1860 1872 1882 1894 1910 1918 1932 1968 2045 2084 2084 2098 2108 2112 2121 2129 2133 2138 2142 2144 2144 2141 2142 2142 2149 2159 2170 2172 2175 2188 2199 2210 2219 2238 2240 2253 2274 2312 2310 2310 2316 2313 2326 2326 2340 2350 2351 2381 2395 2400 2411 2432 2456 2470 2481 2492 2509 2520 2547 2563 2579 2613 2629 2647 2653 2653 2667 2702 2711 2727 2729 2700 2683 2677 2648 2625 2587 2530 2487 2448 2429 2416 2416 2409 2394 2387 2381 2376 2375 2370 2371 2376 2379 2383 2375 2368 2360 2344 2327 2296 2185 2173 2133 2097 2090 2076 2067 2064 2058 2052 2046 2039 2032 2024 2016 2005 1988 1973 1951 1937 1920 1902 1897 1888 1874 1866 1849 1834 1819 1805 1791 1773 1758 1747 1739 1738 1718 1715 1698 1692 1677 1672 1667 1660 1640 1617 1602 1586 1585 1588 1590 1593 1593 1588 1591 1597 1598 1599 1599 1595 1593 1589 1585 1580 1579 1581 1581 1579 1576 1583 1586 1595 1603 1609 1605 1596 1586 1581 1581 1580 1592 1603 1617 1629 1648 1664 1670 1681 1693 1703 1707 1712 1720 1727 1732 1734 1735 1739 1740 1740 1740
1593 1639 1659 1677 1683 1700 1722 1739 1752 1787 1818 1849 1860 1868 1882 1893 1904 1911 1921 1932 2000 2032 2067 2092 2096 2105 2116 2121 2122 2125 2128 2129 2127 2129 2133 2138 2146 2156 2168 2163 2169 2166 2173 2186 2201 2207 2200 2222 2258 2264 2278 2282 2293 2299 2333 2333 2341 2353 2366 2380 2390 2400 2427 2432 2449 2458 2473 2499 2506 2521 2549 2558 2580 2633 2643 2648 2657 2672 2685 2708 2712 2690 2673 2643 2645 2592 2552 2509 2464 2445 2416 2383 2378 2369 2364 2366 2362 2361 2360 2359 2359 2364 2367 2365 2358 2358 2339 2334 2332 2292 2207 2172 2138 2115 2099 2091 2083 2071 2068 2062 2044 2039 2032 2024 2013 2004 1997 1979 1958 1940 1921 1909 1898 1883 1878 1868 1849 1836 1812 1798 1788 1767 1750 1743 1733 1729 1730 1715 1702 1690 1674 1665 1647 1627 1614 1603 1580 1570 1567 1565 1574 1578 1577 1575 1574 1568 1575 1578 1584 1582 1585 1582 1577 1570 1569 1567 1566 1567 1571 1569 1575 1580 1588 1594 1594 1586 1576 1571 1567 1569 1579 1600 1616 1622 1635 1654 1669 1677 1688 1696 1701 1706 1714 1720 1726 1730 1732 1734 1735 1737 1738 1738
1580 1611 1641 1651 1667 1679 1700 1716 1730 1747 1784 1830 1849 1857 1872 1884 1894 1904 1914 1933 1949 1985 2029 2061 2084 2094 2102 2105 2109 2111 2112 2112 2111 2112 2114 2116 2126 2133 2139 2148 2153 2153 2152 2175 2171 2180 2174 2183 2192 2219 2246 2258 2264 2293 2335 2362 2338 2341 2360 2374 2389 2393 2400 2422 2422 2443 2446 2463 2479 2504 2515 2517 2569 2626 2626 2650 2654 2660 2674 2686 2687 2676 2643 2623 2565 2516 2478 2457 2433 2410 2384 2376 2368 2362 2360 2359 2353 2351 2346 2342 2338 2338 2335 2332 2324 2303 2299 2301 2290 2222 2190 2152 2135 2122 2111 2095 2082 2073 2063 2055 2038 2026 2022 2013 2005 2000 1986 1968 1950 1929 1913 1900 1890 1881 1868 1852 1843 1823 1810 1792 1767 1763 1746 1733 1730 1723 1712 1704 1688 1678 1664 1639 1619 1598 1573 1557 1545 1540 1547 1550 1557 1560 1552 1549 1550 1551 1553 1560 1567 1572 1568 1567 1558 1552 1546 1545 1547 1548 1556 1560 1560 1571 1575 1580 1575 1554 1552 1538 1544 1558 1570 1583 1619 1631 1650 1666 1679 1689 1697 1701 1702 1707 1713 1719 1724 1726 1731 1732 1734 1735 1735 1737
1578 1601 1624 1641 1659 1672 1682 1702 1718 1725 1738 1795 1839 1850 1862 1871 1883 1896 1907 1927 1943 1959 1983 2032 2079 2087 2092 2095 2100 2100 2098 2099 2100 2098 2100 2108 2117 2119 2124 2134 2139 2138 2139 2140 2143 2150 2159 2171 2173 2186 2214 2250 2272 2285 2305 2322 2335 2335 2345 2376 2375 2387 2390 2389 2400 2394 2416 2437 2465 2479 2491 2517 2515 2574 2623 2629 2655 2651 2664 2665 2646 2633 2597 2566 2495 2467 2444 2421 2414 2378 2372 2363 2360 2353 2353 2345 2342 2335 2327 2320 2311 2308 2301 2295 2290 2281 2284 2260 2232 2192 2168 2158 2143 2126 2114 2092 2082 2066 2056 2049 2034 2025 2016 2008 2001 1992 1972 1951 1930 1917 1914 1899 1882 1869 1858 1855 1841 1820 1814 1782 1771 1747 1734 1716 1695 1693 1699 1694 1683 1671 1645 1616 1581 1563 1550 1539 1537 1535 1536 1536 1538 1542 1545 1543 1541 1540 1541 1542 1545 1550 1554 1549 1541 1533 1530 1532 1536 1537 1541 1541 1544 1552 1557 1557 1557 1544 1546 1529 1535 1539 1565 1575 1603 1620 1678 1682 1685 1691 1698 1703 1702 1704 1711 1719 1723 1728 1730 1734 1734 1733 1734 1734
1576 1592 1615 1632 1653 1663 1672 1688 1703 1713 1727 1761 1816 1836 1844 1854 1868 1890 1907 1918 1932 1943 1961 1990 2038 2069 2085 2085 2089 2088 2086 2086 2087 2086 2089 2097 2105 2109 2113 2119 2123 2124 2125 2127 2129 2132 2141 2150 2153 2159 2175 2200 2232 2265 2291 2308 2310 2320 2328 2343 2367 2364 2357 2353 2368 2385 2387 2420 2440 2455 2469 2485 2508 2538 2569 2587 2605 2633 2630 2624 2614 2584 2537 2493 2436 2421 2394 2397 2379 2376 2364 2360 2352 2355 2344 2336 2328 2321 2313 2307 2299 2297 2292 2283 2272 2261 2257 2248 2218 2195 2167 2157 2141 2130 2114 2095 2081 2070 2056 2044 2036 2028 2018 2008 1994 1980 1961 1939 1923 1913 1897 1889 1875 1862 1854 1851 1839 1814 1802 1775 1752 1734 1716 1695 1686 1695 1689 1680 1668 1645 1618 1574 1556 1547 1537 1532 1528 1524 1526 1526 1532 1528 1529 1523 1519 1520 1517 1520 1524 1521 1524 1519 1516 1512 1512 1508 1516 1520 1524 1527 1524 1520 1510 1525 1526 1528 1515 1510 1525 1532 1544 1576 1601 1632 1677 1679 1683 1692 1697 1700 1700 1705 1713 1718 1722 1725 1728 1733 1733 1733 1733 1735
1568 1583 1602 1622 1641 1651 1661 1677 1693 1704 1714 1736 1799 1819 1828 1836 1856 1879 1893 1906 1916 1928 1940 1961 1986 2007 2060 2072 2073 2074 2074 2074 2077 2078 2082 2088 2092 2095 2101 2107 2111 2113 2113 2115 2118 2122 2127 2134 2138 2145 2158 2182 2208 2237 2261 2278 2289 2285 2309 2324 2322 2324 2320 2329 2344 2364 2387 2401 2417 2444 2448 2474 2507 2514 2539 2546 2583 2586 2588 2579 2561 2531 2499 2438 2418 2391 2397 2385 2377 2370 2357 2351 2352 2337 2333 2328 2323 2315 2304 2296 2291 2286 2282 2273 2264 2258 2248 2231 2215 2198 2180 2160 2151 2136 2118 2103 2090 2083 2060 2055 2049 2030 2021 2012 1993 1975 1952 1939 1923 1903 1890 1880 1869 1858 1850 1841 1823 1803 1781 1768 1746 1719 1703 1689 1681 1680 1675 1664 1648 1613 1592 1566 1553 1540 1534 1527 1519 1510 1510 1512 1515 1511 1510 1512 1509 1499 1495 1494 1495 1494 1494 1492 1493 1492 1479 1480 1485 1494 1501 1507 1507 1502 1501 1497 1505 1517 1526 1508 1511 1531 1549 1578 1614 1656 1682 1683 1688 1694 1697 1700 1704 1709 1715 1720 1722 1723 1729 1732 1735 1733 1733 1735
1561 1573 1584 1591 1621 1635 1653 1670 1683 1693 1708 1732 1775 1797 1813 1822 1839 1858 1877 1890 1899 1909 1924 1942 1959 1986 2022 2040 2057 2059 2064 2066 2069 2073 2077 2080 2082 2085 2093 2099 2101 2102 2104 2107 2112 2116 2120 2125 2130 2137 2148 2169 2192 2217 2236 2244 2255 2269 2278 2292 2299 2296 2299 2311 2322 2343 2371 2389 2411 2433 2446 2474 2497 2508 2517 2538 2542 2564 2566 2557 2531 2493 2470 2426 2397 2387 2386 2384 2377 2370 2353 2345 2335 2327 2323 2317 2313 2309 2300 2292 2286 2280 2275 2268 2259 2250 2239 2228 2210 2190 2175 2170 2156 2138 2127 2118 2106 2093 2081 2066 2057 2053 2032 2016 1998 1973 1950 1936 1923 1900 1886 1870 1858 1851 1848 1836 1820 1788 1775 1752 1730 1711 1694 1679 1664 1665 1659 1652 1636 1604 1566 1548 1536 1527 1522 1517 1503 1499 1496 1495 1507 1506 1495 1496 1491 1487 1484 1478 1481 1476 1474 1471 1468 1463 1452 1454 1454 1464 1470 1477 1476 1485 1481 1482 1490 1498 1494 1498 1508 1519 1550 1588 1623 1670 1687 1691 1692 1695 1702 1707 1709 1713 1718 1724 1722 1721 1723 1727 1730 1731 1732 1733
1556 1565 1570 1579 1594 1627 1651 1665 1675 1686 1700 1716 1737 1776 1796 1808 1826 1846 1864 1876 1886 1897 1913 1935 1952 1962 1989 2023 2039 2048 2055 2058 2061 2064 2067 2069 2070 2075 2083 2088 2090 2094 2096 2099 2105 2110 2113 2118 2123 2129 2139 2148 2167 2189 2209 2223 2234 2243 2254 2264 2273 2277 2280 2283 2303 2323 2363 2382 2400 2421 2436 2464 2493 2496 2507 2518 2520 2537 2531 2519 2490 2473 2429 2400 2395 2388 2380 2373 2366 2361 2347 2332 2326 2320 2317 2309 2301 2299 2294 2290 2282 2275 2268 2260 2247 2237 2230 2219 2208 2191 2177 2169 2161 2151 2142 2131 2122 2109 2098 2086 2075 2066 2058 2041 2011 1996 1952 1937 1911 1898 1876 1860 1850 1842 1841 1828 1811 1785 1767 1738 1714 1698 1681 1665 1655 1651 1655 1638 1616 1568 1538 1522 1517 1510 1507 1503 1496 1493 1479 1481 1481 1477 1476 1477 1474 1465 1461 1460 1462 1452 1447 1445 1439 1429 1419 1420 1429 1438 1456 1470 1477 1463 1461 1473 1478 1474 1474 1468 1494 1513 1541 1595 1629 1681 1682 1689 1692 1699 1705 1711 1713 1715 1719 1720 1719 1716 1718 1722 1726 1731 1733 1734
1552 1558 1563 1578 1599 1619 1642 1659 1670 1684 1700 1715 1736 1758 1781 1796 1815 1833 1847 1862 1873 1889 1908 1926 1940 1962 1994 2008 2020 2034 2042 2048 2052 2054 2055 2057 2060 2064 2072 2078 2082 2087 2091 2095 2099 2103 2105 2109 2113 2118 2126 2133 2140 2162 2186 2200 2212 2218 2229 2239 2246 2244 2252 2263 2278 2296 2325 2359 2380 2408 2430 2466 2480 2494 2496 2506 2512 2520 2513 2486 2477 2429 2404 2392 2386 2381 2371 2363 2355 2347 2338 2329 2324 2318 2311 2301 2295 2292 2289 2285 2279 2274 2268 2263 2249 2239 2230 2218 2206 2198 2185 2178 2170 2162 2153 2146 2141 2134 2124 2103 2098 2082 2078 2058 2037 2015 2000 1939 1901 1886 1867 1855 1844 1836 1829 1817 1806 1782 1758 1731 1711 1684 1666 1655 1651 1638 1633 1618 1579 1539 1526 1514 1503 1489 1492 1492 1490 1487 1472 1466 1461 1460 1461 1457 1452 1449 1444 1436 1433 1429 1426 1424 1418 1404 1398 1396 1403 1414 1428 1446 1473 1457 1453 1459 1460 1459 1463 1476 1486 1491 1495 1597 1667 1674 1678 1685 1692 1697 1701 1709 1714 1714 1713 1716 1717 1718 1720 1723 1726 1730 1736 1736
1541 1549 1558 1574 1596 1617 1631 1648 1670 1689 1697 1711 1730 1749 1766 1782 1804 1823 1834 1846 1858 1873 1894 1913 1933 1957 1985 2001 2012 2025 2032 2037 2041 2046 2050 2052 2053 2057 2063 2069 2073 2078 2084 2087 2090 2094 2098 2102 2104 2109 2117 2124 2138 2157 2172 2185 2190 2197 2204 2216 2225 2230 2236 2241 2255 2273 2314 2346 2358 2381 2413 2451 2478 2491 2492 2496 2500 2508 2509 2479 2454 2428 2397 2390 2379 2373 2369 2366 2355 2349 2343 2337 2328 2323 2315 2306 2299 2293 2287 2280 2277 2275 2274 2268 2262 2247 2231 2219 2209 2201 2191 2186 2182 2178 2171 2166 2165 2162 2150 2146 2132 2129 2100 2074 2058 2036 2003 1952 1890 1878 1867 1848 1836 1827 1817 1808 1791 1775 1750 1729 1711 1685 1673 1658 1644 1631 1617 1595 1557 1530 1514 1489 1477 1473 1482 1477 1475 1473 1458 1451 1446 1444 1443 1437 1433 1430 1426 1419 1412 1416 1412 1409 1402 1390 1379 1374 1382 1385 1424 1444 1459 1443 1443 1447 1449 1451 1461 1474 1483 1495 1574 1633 1663 1668 1678 1686 1695 1699 1706 1713 1715 1713 1712 1714 1718 1720 1723 1725 1727 1730 1735 1737
1530 1540 1551 1568 1587 1606 1621 1637 1663 1677 1691 1705 1720 1737 1752 1770 1792 1813 1827 1836 1849 1864 1879 1901 1920 1936 1971 1999 2007 2016 2023 2025 2030 2039 2047 2048 2048 2048 2052 2059 2065 2069 2073 2076 2081 2086 2090 2094 2100 2105 2112 2121 2133 2151 2165 2172 2180 2185 2190 2198 2206 2214 2222 2234 2238 2258 2298 2315 2349 2381 2408 2427 2469 2494 2495 2499 2501 2502 2492 2470 2439 2424 2394 2391 2383 2375 2373 2368 2364 2359 2350 2346 2340 2333 2327 2320 2314 2309 2299 2294 2286 2281 2277 2268 2268 2250 2235 2224 2216 2208 2201 2203 2201 2200 2201 2196 2193 2191 2180 2169 2159 2138 2136 2105 2072 2053 2029 1951 1889 1882 1861 1851 1835 1822 1816 1805 1788 1772 1751 1731 1706 1688 1681 1659 1640 1624 1598 1573 1549 1515 1489 1472 1460 1465 1468 1456 1460 1452 1447 1441 1436 1433 1427 1420 1416 1414 1410 1403 1398 1397 1397 1395 1385 1371 1361 1355 1353 1372 1393 1393 1402 1418 1425 1434 1440 1442 1449 1465 1474 1494 1531 1556 1603 1651 1671 1685 1696 1706 1712 1717 1716 1714 1713 1714 1715 1717 1720 1725 1729 1733 1734 1737
1520 1526 1535 1557 1584 1601 1616 1626 1643 1664 1679 1694 1708 1726 1742 1756 1776 1801 1815 1829 1843 1860 1876 1888 1901 1924 1961 1985 1992 2000 2007 2016 2022 2028 2035 2039 2040 2043 2046 2052 2058 2062 2065 2069 2074 2081 2085 2090 2096 2099 2105 2115 2127 2139 2152 2164 2172 2177 2180 2185 2192 2199 2204 2208 2229 2242 2291 2319 2342 2361 2398 2422 2447 2484 2493 2500 2505 2505 2485 2474 2437 2420 2408 2390 2385 2382 2384 2376 2374 2374 2369 2366 2361 2353 2352 2348 2336 2328 2323 2315 2307 2298 2287 2276 2261 2253 2246 2229 2222 2218 2214 2214 2212 2217 2219 2220 2219 2213 2201 2181 2174 2157 2141 2107 2072 2053 2027 1956 1921 1895 1870 1862 1847 1832 1812 1799 1790 1779 1758 1727 1705 1687 1680 1663 1639 1616 1578 1559 1517 1487 1474 1463 1458 1452 1449 1450 1445 1437 1435 1434 1429 1421 1413 1407 1402 1396 1391 1388 1385 1384 1382 1373 1363 1357 1347 1342 1344 1348 1363 1376 1387 1400 1411 1419 1429 1435 1439 1434 1457 1495 1518 1534 1572 1607 1645 1674 1690 1704 1711 1714 1713 1712 1711 1709 1708 1710 1715 1722 1729 1731 1733 1734
1508 1513 1521 1537 1566 1592 1604 1617 1630 1652 1670 1684 1697 1712 1730 1742 1762 1788 1804 1821 1839 1853 1869 1883 1892 1904 1938 1972 1979 1987 1998 2008 2013 2017 2022 2028 2034 2037 2039 2045 2052 2055 2056 2059 2064 2069 2075 2081 2087 2092 2099 2108 2119 2132 2144 2153 2161 2168 2171 2176 2185 2191 2198 2210 2220 2239 2268 2296 2317 2352 2391 2422 2429 2472 2488 2495 2500 2502 2482 2464 2456 2430 2419 2412 2404 2405 2401 2397 2400 2397 2394 2398 2390 2384 2378 2369 2362 2358 2348 2337 2328 2317 2300 2288 2276 2264 2249 2239 2229 2224 2224 2222 2224 2227 2229 2234 2226 2218 2209 2200 2182 2169 2142 2101 2078 2051 2032 1972 1947 1910 1891 1868 1853 1836 1820 1805 1790 1775 1739 1718 1702 1686 1675 1661 1637 1614 1579 1535 1496 1476 1466 1458 1451 1449 1445 1433 1432 1429 1428 1426 1421 1412 1403 1398 1390 1382 1375 1371 1370 1365 1361 1358 1354 1347 1340 1334 1336 1341 1348 1364 1381 1392 1406 1418 1424 1427 1429 1450 1487 1509 1522 1536 1555 1585 1612 1641 1673 1682 1695 1699 1705 1702 1699 1696 1697 1701 1707 1716 1723 1727 1730 1728
1500 1506 1510 1521 1539 1560 1586 1598 1616 1641 1659 1671 1685 1703 1715 1725 1743 1770 1796 1816 1828 1841 1857 1872 1884 1894 1908 1938 1968 1979 1993 2004 2007 2010 2012 2020 2027 2030 2034 2040 2047 2050 2050 2051 2054 2058 2062 2069 2076 2084 2093 2101 2111 2125 2137 2143 2148 2157 2163 2167 2173 2178 2190 2201 2211 2224 2258 2287 2305 2328 2364 2384 2431 2441 2466 2486 2491 2488 2475 2469 2460 2451 2432 2433 2430 2431 2432 2437 2441 2430 2427 2425 2421 2416 2409 2402 2392 2382 2363 2370 2356 2336 2328 2301 2287 2275 2262 2256 2248 2239 2237 2245 2244 2244 2241 2241 2233 2223 2214 2202 2186 2171 2128 2091 2061 2042 2008 1964 1948 1922 1897 1877 1863 1844 1823 1803 1787 1772 1737 1718 1703 1687 1679 1662 1634 1608 1582 1531 1490 1476 1462 1453 1448 1441 1434 1425 1426 1425 1423 1419 1410 1401 1395 1389 1383 1373 1360 1355 1353 1348 1345 1343 1338 1332 1323 1318 1322 1329 1342 1357 1371 1382 1396 1411 1420 1425 1450 1483 1502 1514 1524 1538 1552 1571 1588 1610 1634 1646 1660 1672 1682 1684 1683 1680 1684 1691 1698 1707 1715 1721 1722 1718
1491 1495 1501 1508 1519 1546 1571 1587 1599 1627 1648 1657 1670 1691 1703 1706 1719 1754 1785 1802 1812 1823 1841 1857 1869 1883 1899 1917 1943 1966 1982 1992 1999 2001 2005 2011 2018 2023 2029 2037 2042 2044 2046 2047 2049 2053 2058 2063 2070 2078 2086 2097 2107 2118 2129 2136 2141 2148 2155 2158 2165 2170 2179 2195 2212 2211 2229 2275 2291 2312 2341 2361 2395 2425 2437 2460 2476 2481 2478 2479 2461 2463 2452 2447 2456 2458 2470 2490 2490 2479 2479 2469 2456 2444 2434 2438 2429 2425 2408 2398 2367 2355 2339 2322 2306 2295 2286 2272 2263 2261 2258 2261 2259 2259 2255 2253 2241 2225 2212 2195 2174 2132 2103 2081 2056 2034 1999 1966 1939 1917 1896 1884 1869 1842 1817 1799 1794 1776 1750 1731 1717 1701 1687 1671 1643 1616 1586 1540 1499 1477 1468 1456 1448 1445 1435 1428 1423 1421 1417 1410 1402 1395 1388 1380 1371 1360 1347 1340 1339 1339 1334 1327 1322 1315 1309 1303 1306 1320 1334 1349 1358 1365 1375 1393 1398 1441 1468 1486 1500 1514 1524 1534 1547 1561 1574 1587 1606 1624 1635 1639 1654 1665 1666 1666 1668 1673 1682 1692 1703 1710 1710 1701
1480 1485 1492 1503 1517 1534 1563 1581 1596 1613 1632 1648 1663 1678 1689 1698 1713 1736 1765 1784 1794 1806 1824 1844 1856 1871 1887 1905 1929 1946 1962 1975 1983 1990 1994 1998 2005 2015 2022 2028 2033 2038 2042 2044 2046 2051 2057 2062 2068 2075 2082 2090 2101 2112 2121 2127 2134 2141 2147 2151 2161 2167 2170 2182 2196 2210 2229 2273 2293 2297 2316 2339 2367 2395 2413 2432 2445 2468 2481 2476 2471 2460 2469 2472 2483 2503 2501 2501 2509 2509 2518 2512 2492 2479 2470 2464 2464 2459 2449 2445 2438 2407 2375 2342 2325 2327 2313 2309 2296 2287 2283 2280 2273 2272 2270 2266 2256 2237 2218 2198 2164 2127 2097 2067 2046 2026 1997 1967 1935 1910 1893 1882 1869 1840 1829 1816 1804 1790 1770 1752 1743 1724 1706 1683 1657 1626 1599 1554 1520 1482 1470 1464 1465 1454 1444 1431 1422 1416 1411 1403 1395 1387 1379 1369 1358 1344 1332 1327 1326 1326 1322 1315 1309 1304 1299 1296 1298 1311 1327 1334 1341 1344 1351 1357 1363 1436 1471 1478 1491 1507 1522 1534 1544 1552 1562 1574 1587 1599 1611 1622 1632 1643 1650 1651 1650 1657 1663 1674 1688 1699 1698 1692
1470 1476 1482 1494 1503 1518 1546 1570 1585 1603 1622 1640 1652 1668 1681 1690 1703 1721 1743 1765 1782 1798 1817 1834 1848 1862 1876 1893 1915 1931 1946 1958 1966 1975 1981 1988 1997 2007 2012 2017 2021 2028 2037 2041 2044 2049 2054 2060 2068 2075 2080 2087 2096 2106 2111 2116 2122 2130 2134 2139 2146 2156 2165 2176 2190 2200 2217 2255 2283 2302 2314 2327 2351 2364 2390 2418 2434 2447 2469 2469 2475 2470 2467 2493 2518 2516 2526 2526 2532 2525 2534 2534 2519 2518 2507 2499 2502 2492 2485 2474 2462 2451 2432 2404 2368 2354 2342 2334 2323 2307 2302 2296 2291 2289 2287 2281 2268 2249 2225 2210 2171 2140 2101 2063 2041 2017 1989 1932 1916 1904 1887 1874 1861 1850 1834 1824 1811 1799 1786 1768 1754 1745 1725 1700 1676 1634 1600 1581 1539 1504 1483 1477 1469 1459 1448 1436 1424 1416 1409 1397 1385 1374 1364 1355 1343 1331 1323 1316 1313 1313 1312 1307 1300 1296 1294 1291 1292 1304 1316 1320 1323 1325 1326 1330 1337 1418 1461 1467 1483 1498 1515 1527 1535 1544 1553 1564 1575 1583 1594 1606 1614 1623 1628 1632 1635 1641 1650 1657 1671 1683 1688 1684
1456 1460 1468 1477 1490 1505 1527 1550 1576 1600 1616 1633 1645 1661 1676 1685 1694 1708 1727 1751 1770 1788 1807 1821 1831 1844 1855 1870 1888 1905 1923 1935 1942 1953 1967 1975 1986 1996 2004 2007 2014 2023 2036 2042 2044 2047 2050 2056 2064 2072 2077 2083 2091 2101 2106 2108 2112 2118 2125 2129 2130 2136 2147 2164 2178 2200 2208 2235 2267 2293 2300 2323 2327 2344 2383 2401 2416 2438 2459 2471 2476 2491 2495 2524 2554 2559 2549 2547 2550 2559 2570 2568 2553 2551 2544 2530 2528 2524 2519 2497 2479 2467 2454 2439 2401 2386 2372 2358 2335 2332 2322 2313 2306 2301 2297 2291 2280 2253 2228 2207 2178 2136 2105 2063 2030 1997 1946 1917 1907 1894 1885 1873 1864 1855 1839 1828 1816 1800 1789 1773 1759 1751 1740 1714 1698 1651 1606 1584 1551 1507 1486 1482 1470 1460 1451 1441 1429 1420 1413 1399 1386 1374 1360 1351 1339 1329 1318 1309 1303 1302 1300 1296 1294 1291 1287 1285 1285 1295 1299 1302 1303 1303 1303 1306 1309 1393 1443 1454 1469 1485 1501 1514 1525 1536 1545 1554 1565 1574 1582 1592 1600 1605 1611 1613 1616 1626 1632 1639 1646 1662 1677 1679
1441 1445 1456 1469 1479 1497 1516 1535 1560 1604 1628 1632 1640 1656 1671 1682 1695 1707 1723 1743 1760 1772 1784 1802 1814 1821 1831 1843 1860 1879 1897 1913 1922 1931 1946 1959 1970 1984 1993 2000 2008 2022 2034 2038 2041 2043 2045 2049 2058 2066 2072 2079 2086 2092 2098 2101 2106 2113 2120 2123 2125 2128 2132 2149 2160 2184 2208 2224 2241 2267 2288 2303 2316 2310 2347 2387 2406 2427 2448 2467 2484 2503 2519 2553 2572 2586 2580 2579 2576 2580 2591 2594 2594 2585 2576 2563 2553 2526 2521 2517 2495 2482 2469 2453 2413 2401 2387 2373 2353 2337 2325 2318 2314 2308 2295 2294 2278 2252 2227 2208 2175 2132 2091 2062 2027 1980 1951 1924 1906 1895 1885 1874 1864 1856 1844 1831 1818 1804 1791 1784 1770 1756 1746 1736 1701 1676 1628 1605 1568 1512 1494 1484 1471 1461 1452 1442 1432 1423 1416 1411 1400 1386 1372 1356 1345 1334 1321 1309 1302 1296 1292 1290 1288 1284 1281 1280 1279 1281 1285 1285 1286 1284 1283 1284 1285 1335 1401 1436 1450 1474 1487 1498 1510 1522 1534 1545 1554 1565 1571 1579 1586 1594 1596 1598 1600 1607 1617 1622 1627 1638 1662 1660
1426 1431 1444 1467 1479 1493 1510 1527 1557 1609 1632 1633 1639 1649 1662 1677 1693 1710 1724 1738 1753 1762 1770 1785 1799 1809 1818 1826 1844 1860 1877 1897 1909 1924 1939 1951 1961 1973 1983 1989 2002 2021 2030 2033 2036 2040 2041 2045 2054 2065 2072 2078 2083 2089 2092 2096 2101 2111 2119 2126 2121 2121 2126 2142 2149 2168 2189 2204 2217 2233 2241 2270 2286 2299 2314 2347 2397 2425 2437 2474 2490 2512 2556 2579 2592 2618 2617 2615 2612 2613 2614 2613 2609 2608 2605 2596 2578 2560 2545 2528 2515 2499 2487 2465 2422 2406 2392 2378 2360 2335 2321 2311 2305 2296 2292 2278 2264 2239 2223 2193 2165 2125 2078 2025 2010 1977 1944 1919 1908 1902 1888 1886 1874 1862 1854 1845 1831 1815 1801 1798 1787 1776 1769 1754 1720 1701 1662 1621 1593 1548 1507 1487 1473 1462 1453 1447 1440 1431 1424 1413 1405 1394 1380 1365 1353 1340 1326 1319 1310 1301 1293 1289 1286 1284 1281 1277 1275 1272 1274 1275 1274 1269 1265 1266 1265 1293 1354 1393 1423 1451 1469 1482 1493 1507 1522 1533 1540 1551 1561 1563 1569 1573 1581 1584 1586 1596 1609 1613 1618 1628 1645 1650
1416 1424 1443 1466 1485 1499 1509 1517 1561 1633 1629 1630 1635 1644 1655 1673 1695 1712 1726 1739 1745 1752 1763 1779 1794 1805 1813 1821 1829 1841 1859 1879 1901 1920 1935 1946 1952 1962 1974 1983 1998 2015 2024 2028 2034 2039 2042 2046 2056 2066 2072 2076 2079 2085 2089 2092 2098 2109 2121 2129 2124 2125 2131 2135 2136 2149 2161 2181 2196 2202 2219 2236 2257 2264 2305 2331 2356 2396 2443 2473 2495 2525 2560 2585 2621 2629 2656 2652 2654 2646 2638 2631 2625 2621 2622 2615 2602 2588 2574 2560 2532 2524 2504 2460 2434 2410 2391 2380 2357 2336 2320 2300 2289 2277 2258 2257 2243 2219 2201 2184 2164 2124 2085 2031 2009 1991 1969 1950 1919 1911 1902 1893 1889 1879 1871 1867 1859 1839 1824 1819 1804 1791 1780 1763 1730 1700 1668 1642 1610 1588 1530 1495 1478 1468 1460 1454 1446 1437 1426 1413 1401 1391 1381 1368 1357 1345 1335 1328 1323 1313 1302 1295 1292 1289 1286 1280 1273 1268 1264 1264 1260 1256 1255 1254 1256 1266 1288 1344 1382 1416 1449 1465 1483 1494 1507 1518 1524 1533 1542 1541 1541 1549 1556 1568 1576 1586 1600 1602 1610 1621 1636 1635
1408 1419 1442 1464 1485 1498 1506 1508 1538 1592 1621 1622 1629 1636 1648 1671 1698 1713 1723 1733 1739 1747 1760 1775 1790 1802 1811 1817 1825 1831 1840 1859 1897 1924 1932 1939 1943 1949 1962 1980 1995 2006 2014 2024 2032 2037 2040 2047 2055 2063 2066 2068 2074 2081 2084 2087 2092 2103 2121 2131 2133 2136 2132 2133 2138 2148 2154 2174 2182 2182 2204 2212 2238 2258 2266 2309 2336 2398 2445 2462 2498 2532 2560 2592 2626 2660 2664 2668 2669 2666 2661 2656 2648 2641 2633 2626 2616 2612 2587 2569 2560 2538 2523 2479 2450 2424 2410 2380 2365 2337 2313 2291 2276 2260 2250 2234 2213 2198 2180 2175 2163 2119 2089 2047 2030 2004 1986 1980 1950 1937 1923 1913 1905 1898 1895 1888 1886 1875 1858 1846 1827 1818 1792 1779 1738 1707 1675 1664 1639 1603 1553 1511 1486 1476 1469 1461 1451 1440 1426 1411 1399 1390 1379 1369 1359 1349 1340 1334 1326 1318 1311 1304 1299 1295 1292 1285 1277 1268 1262 1256 1252 1247 1244 1243 1244 1248 1262 1309 1345 1378 1407 1444 1467 1483 1487 1499 1498 1503 1511 1511 1520 1525 1535 1550 1556 1570 1581 1582 1594 1616 1622 1623
1405 1413 1418 1439 1454 1461 1478 1497 1515 1576 1607 1613 1619 1632 1645 1667 1696 1711 1720 1727 1734 1749 1762 1773 1785 1796 1806 1814 1822 1830 1836 1841 1886 1924 1928 1930 1934 1947 1960 1977 1991 1998 2006 2018 2026 2031 2036 2042 2050 2055 2058 2064 2070 2074 2078 2083 2089 2103 2122 2133 2135 2133 2137 2139 2140 2144 2156 2161 2173 2182 2186 2205 2213 2247 2269 2306 2331 2390 2438 2465 2507 2534 2562 2598 2632 2654 2667 2672 2685 2687 2686 2681 2672 2664 2649 2639 2633 2622 2610 2581 2568 2541 2521 2499 2473 2455 2421 2398 2373 2343 2307 2291 2269 2257 2239 2214 2202 2186 2177 2164 2143 2124 2089 2065 2042 2022 2009 2008 1994 1974 1967 1945 1928 1920 1923 1920 1912 1909 1904 1884 1855 1833 1817 1795 1751 1704 1690 1681 1650 1601 1579 1529 1504 1486 1475 1468 1458 1442 1427 1414 1402 1391 1380 1367 1357 1348 1342 1338 1331 1325 1319 1316 1309 1303 1298 1292 1284 1280 1271 1263 1255 1244 1239 1235 1235 1234 1242 1261 1303 1342 1363 1400 1421 1453 1459 1462 1467 1477 1481 1491 1502 1511 1514 1513 1528 1536 1553 1562 1580 1598 1601 1605
1395 1401 1406 1418 1433 1448 1473 1487 1498 1563 1610 1609 1616 1625 1636 1651 1683 1713 1722 1727 1738 1751 1763 1775 1784 1793 1804 1810 1816 1822 1829 1851 1897 1921 1922 1926 1932 1946 1962 1973 1982 1988 1997 2007 2014 2021 2027 2036 2044 2048 2050 2056 2063 2070 2074 2082 2092 2104 2119 2128 2129 2132 2138 2139 2144 2144 2150 2155 2160 2169 2191 2202 2208 2229 2248 2274 2324 2390 2432 2469 2504 2532 2551 2596 2606 2639 2653 2661 2684 2687 2691 2689 2685 2676 2659 2650 2636 2617 2604 2582 2567 2546 2518 2495 2474 2457 2432 2403 2382 2349 2309 2292 2268 2252 2229 2212 2197 2175 2172 2158 2137 2124 2104 2080 2059 2046 2029 2020 2025 2018 2002 1997 1984 1961 1954 1950 1948 1934 1915 1900 1878 1850 1816 1797 1764 1729 1702 1682 1654 1626 1584 1541 1514 1503 1482 1473 1461 1449 1435 1420 1408 1396 1385 1374 1361 1353 1349 1345 1339 1331 1325 1319 1314 1310 1302 1295 1290 1285 1282 1276 1266 1256 1245 1238 1232 1229 1228 1237 1262 1298 1318 1345 1326 1380 1423 1438 1448 1454 1464 1471 1482 1481 1480 1477 1488 1506 1517 1544 1572 1592 1584 1587
1377 1387 1398 1416 1426 1436 1462 1487 1487 1554 1612 1615 1619 1629 1644 1660 1698 1730 1732 1736 1741 1754 1763 1775 1790 1797 1801 1807 1814 1820 1824 1854 1908 1926 1924 1930 1942 1954 1962 1969 1973 1981 1991 2001 2009 2016 2024 2032 2037 2039 2043 2049 2059 2068 2077 2084 2090 2101 2113 2123 2133 2136 2141 2138 2144 2146 2148 2152 2164 2176 2194 2207 2213 2226 2245 2268 2321 2371 2448 2476 2491 2522 2543 2574 2591 2608 2620 2631 2651 2675 2681 2685 2682 2676 2666 2652 2633 2609 2589 2573 2554 2532 2506 2482 2465 2445 2427 2402 2375 2355 2319 2286 2278 2250 2231 2212 2204 2180 2170 2163 2151 2130 2117 2101 2079 2077 2064 2057 2054 2043 2035 2023 2001 1990 1986 1987 1983 1953 1933 1915 1896 1882 1848 1798 1781 1742 1703 1685 1659 1641 1606 1564 1533 1509 1495 1486 1466 1454 1441 1426 1411 1399 1391 1381 1371 1363 1355 1350 1343 1336 1330 1325 1321 1318 1314 1305 1294 1290 1286 1286 1282 1271 1259 1246 1236 1230 1225 1224 1232 1256 1275 1291 1304 1327 1386 1415 1430 1431 1434 1443 1452 1443 1451 1451 1469 1483 1506 1529 1550 1583 1561 1569
1375 1383 1398 1419 1421 1436 1468 1479 1508 1560 1603 1621 1627 1641 1655 1678 1711 1729 1733 1736 1744 1756 1768 1779 1791 1799 1804 1813 1822 1827 1832 1853 1892 1922 1936 1943 1951 1961 1967 1968 1974 1983 1994 2004 2010 2015 2022 2030 2034 2035 2037 2045 2056 2067 2076 2083 2091 2095 2113 2128 2139 2147 2144 2157 2144 2150 2151 2162 2174 2189 2204 2210 2228 2235 2248 2271 2317 2358 2456 2467 2492 2511 2540 2567 2578 2591 2603 2625 2638 2645 2667 2680 2682 2678 2674 2660 2644 2611 2583 2563 2543 2521 2498 2478 2459 2446 2430 2408 2383 2357 2333 2319 2285 2274 2258 2236 2215 2195 2183 2174 2164 2153 2131 2114 2100 2090 2087 2083 2079 2069 2062 2049 2039 2027 2014 2008 1992 1982 1954 1928 1908 1884 1870 1839 1790 1755 1715 1685 1666 1641 1620 1598 1538 1515 1501 1494 1469 1458 1442 1429 1415 1402 1393 1389 1383 1374 1365 1354 1349 1345 1344 1341 1336 1333 1326 1321 1309 1300 1296 1293 1289 1279 1266 1253 1243 1235 1227 1220 1219 1218 1232 1241 1269 1290 1338 1377 1401 1403 1402 1404 1417 1414 1430 1446 1459 1474 1487 1505 1513 1554 1537 1551
1370 1379 1386 1392 1431 1438 1459 1498 1527 1563 1611 1621 1628 1647 1660 1677 1703 1718 1724 1733 1744 1761 1777 1787 1798 1803 1809 1817 1827 1832 1838 1845 1875 1923 1946 1948 1954 1959 1965 1972 1977 1989 1999 2001 2006 2012 2018 2025 2029 2030 2033 2041 2053 2064 2073 2081 2092 2107 2122 2129 2142 2148 2152 2161 2154 2156 2157 2171 2191 2205 2214 2223 2235 2244 2255 2284 2318 2363 2386 2459 2473 2492 2519 2547 2562 2575 2592 2607 2635 2645 2647 2670 2678 2681 2680 2668 2648 2613 2584 2561 2537 2525 2501 2481 2468 2458 2441 2416 2393 2374 2346 2325 2302 2291 2277 2255 2234 2209 2195 2186 2181 2176 2157 2134 2116 2107 2100 2097 2093 2086 2078 2066 2056 2036 2028 2014 2003 1978 1954 1928 1903 1884 1867 1832 1794 1759 1720 1680 1664 1654 1616 1594 1552 1520 1495 1485 1462 1456 1441 1430 1418 1405 1398 1394 1391 1384 1374 1369 1363 1362 1360 1356 1350 1343 1333 1327 1320 1311 1304 1299 1293 1283 1270 1259 1249 1241 1232 1223 1216 1207 1203 1211 1235 1254 1285 1322 1356 1369 1367 1370 1380 1380 1408 1417 1444 1452 1459 1468 1472 1504 1514 1523
1383 1393 1400 1405 1433 1455 1470 1483 1548 1607 1609 1618 1633 1652 1669 1688 1705 1717 1728 1738 1749 1769 1789 1798 1805 1812 1818 1826 1833 1838 1844 1849 1879 1922 1942 1946 1951 1957 1967 1975 1982 1991 1995 1998 2001 2006 2012 2018 2023 2026 2030 2040 2050 2063 2067 2081 2101 2113 2122 2128 2133 2141 2150 2155 2164 2162 2169 2188 2203 2213 2220 2229 2246 2260 2263 2290 2313 2341 2378 2419 2453 2483 2508 2527 2548 2577 2586 2611 2633 2640 2651 2668 2677 2686 2686 2672 2654 2614 2592 2576 2552 2533 2509 2489 2476 2464 2449 2438 2416 2394 2375 2344 2321 2301 2280 2262 2240 2218 2205 2196 2191 2185 2176 2153 2133 2124 2116 2112 2106 2097 2080 2071 2053 2034 2027 2010 1998 1967 1946 1924 1892 1881 1855 1824 1797 1761 1724 1693 1674 1647 1616 1585 1559 1511 1491 1477 1459 1457 1441 1435 1427 1419 1412 1407 1399 1391 1384 1378 1372 1368 1366 1360 1354 1345 1337 1329 1321 1313 1306 1300 1292 1283 1275 1265 1259 1251 1241 1231 1221 1210 1201 1202 1212 1227 1242 1271 1263 1305 1334 1330 1343 1342 1358 1371 1404 1418 1430 1436 1444 1460 1473 1494
1397 1408 1421 1430 1439 1464 1497 1520 1551 1612 1614 1624 1635 1651 1674 1695 1706 1717 1727 1736 1753 1777 1794 1803 1811 1818 1827 1835 1841 1847 1855 1858 1894 1929 1938 1944 1948 1956 1966 1977 1984 1990 1993 1995 2001 2007 2012 2018 2024 2027 2032 2043 2057 2065 2076 2088 2102 2109 2117 2125 2132 2139 2149 2157 2166 2162 2182 2197 2209 2218 2227 2236 2256 2260 2276 2294 2316 2334 2372 2416 2457 2476 2510 2533 2550 2560 2593 2622 2638 2647 2661 2671 2682 2696 2701 2693 2671 2648 2617 2595 2571 2549 2524 2499 2483 2473 2466 2455 2440 2420 2399 2372 2347 2321 2297 2275 2246 2224 2213 2207 2198 2191 2186 2172 2150 2140 2129 2123 2114 2100 2084 2064 2055 2045 2024 1998 1981 1958 1927 1903 1889 1883 1853 1815 1781 1751 1728 1695 1675 1645 1615 1581 1538 1514 1502 1480 1464 1456 1450 1445 1442 1436 1429 1423 1413 1401 1390 1383 1378 1371 1362 1357 1352 1345 1336 1328 1320 1313 1304 1297 1292 1284 1275 1269 1265 1261 1252 1241 1229 1219 1209 1204 1203 1207 1215 1225 1233 1242 1274 1283 1302 1303 1316 1313 1356 1375 1395 1411 1428 1438 1453 1458
1406 1418 1436 1446 1468 1483 1507 1534 1554 1581 1633 1633 1639 1653 1672 1692 1707 1717 1727 1739 1760 1782 1798 1808 1816 1823 1832 1842 1852 1858 1870 1894 1915 1926 1936 1942 1947 1954 1963 1972 1981 1987 1993 1999 2004 2009 2016 2023 2028 2029 2035 2044 2060 2075 2083 2092 2103 2111 2117 2125 2135 2143 2153 2164 2170 2167 2172 2198 2215 2228 2238 2247 2253 2264 2282 2301 2314 2319 2372 2423 2436 2478 2524 2535 2543 2566 2596 2620 2639 2665 2673 2684 2701 2723 2726 2715 2699 2672 2646 2614 2597 2578 2549 2531 2504 2488 2480 2474 2467 2439 2420 2403 2363 2342 2322 2299 2262 2238 2216 2207 2198 2191 2184 2176 2166 2155 2141 2129 2121 2113 2093 2069 2056 2030 2006 2003 1977 1949 1929 1905 1885 1879 1853 1808 1759 1747 1713 1692 1656 1633 1597 1550 1531 1512 1496 1478 1467 1464 1463 1458 1452 1443 1436 1430 1423 1411 1401 1395 1386 1376 1366 1360 1356 1350 1341 1333 1323 1312 1304 1296 1291 1285 1276 1268 1265 1263 1254 1242 1232 1223 1213 1206 1198 1192 1197 1207 1216 1224 1239 1255 1273 1284 1289 1295 1318 1346 1367 1388 1403 1420 1430 1440
1422 1444 1454 1459 1483 1507 1533 1543 1561 1588 1631 1640 1644 1654 1671 1695 1712 1722 1733 1747 1769 1790 1803 1812 1820 1829 1838 1850 1859 1875 1894 1907 1916 1926 1935 1941 1947 1953 1958 1967 1976 1985 1994 2001 2005 2011 2019 2024 2029 2032 2038 2052 2065 2073 2082 2092 2105 2113 2122 2134 2144 2154 2162 2169 2173 2172 2188 2206 2223 2231 2243 2251 2247 2270 2284 2300 2307 2317 2377 2406 2440 2476 2527 2541 2552 2569 2599 2631 2645 2660 2679 2707 2719 2728 2739 2732 2714 2704 2672 2638 2622 2596 2575 2556 2530 2512 2499 2486 2480 2468 2435 2415 2406 2369 2345 2319 2286 2252 2236 2215 2205 2197 2190 2181 2171 2160 2146 2135 2131 2122 2095 2067 2054 2052 2013 1995 1970 1936 1912 1897 1878 1847 1831 1791 1749 1720 1689 1669 1630 1616 1560 1545 1529 1505 1487 1476 1468 1468 1471 1469 1459 1451 1443 1439 1432 1422 1413 1405 1395 1385 1375 1368 1363 1355 1347 1336 1326 1316 1307 1296 1290 1284 1277 1268 1261 1256 1249 1241 1231 1222 1215 1205 1196 1187 1185 1191 1200 1212 1224 1238 1256 1264 1273 1278 1297 1321 1346 1356 1366 1387 1405 1405
1425 1441 1458 1478 1490 1527 1543 1561 1575 1609 1633 1647 1655 1664 1682 1702 1717 1731 1743 1755 1770 1789 1803 1812 1819 1828 1840 1850 1863 1883 1902 1914 1922 1931 1939 1947 1951 1956 1959 1968 1979 1990 1999 2008 2014 2022 2028 2029 2028 2035 2044 2054 2066 2078 2088 2100 2112 2121 2131 2142 2154 2164 2171 2176 2181 2176 2183 2196 2209 2219 2238 2248 2258 2275 2290 2301 2308 2314 2325 2388 2406 2473 2505 2538 2551 2570 2606 2626 2650 2661 2684 2724 2734 2739 2748 2748 2733 2716 2680 2671 2645 2615 2581 2562 2553 2528 2518 2500 2481 2468 2450 2430 2411 2382 2353 2319 2293 2274 2257 2233 2220 2213 2201 2193 2187 2172 2158 2146 2140 2130 2112 2078 2072 2053 2026 1984 1964 1931 1912 1893 1858 1826 1809 1777 1732 1712 1654 1641 1623 1593 1561 1534 1530 1513 1503 1481 1472 1462 1471 1473 1467 1458 1451 1446 1440 1433 1420 1412 1404 1394 1386 1377 1370 1360 1350 1337 1328 1320 1309 1297 1290 1283 1274 1265 1256 1249 1244 1237 1229 1219 1211 1203 1194 1184 1178 1179 1183 1197 1212 1223 1238 1247 1251 1261 1270 1293 1308 1325 1339 1354 1364 1384
1438 1449 1459 1478 1500 1544 1556 1575 1591 1603 1637 1659 1673 1678 1687 1702 1721 1736 1749 1762 1775 1790 1803 1813 1821 1830 1839 1848 1862 1883 1902 1914 1925 1937 1949 1958 1962 1965 1968 1976 1991 2001 2008 2013 2021 2031 2036 2037 2045 2053 2058 2065 2082 2099 2108 2118 2130 2143 2151 2158 2167 2175 2180 2183 2184 2183 2184 2186 2203 2218 2228 2236 2260 2276 2289 2299 2305 2315 2326 2358 2393 2429 2478 2526 2546 2576 2610 2627 2653 2654 2684 2723 2744 2746 2760 2760 2749 2717 2698 2679 2647 2607 2573 2560 2552 2535 2518 2507 2487 2470 2449 2437 2420 2399 2363 2329 2304 2285 2269 2250 2240 2228 2218 2210 2200 2187 2179 2170 2161 2151 2125 2113 2077 2067 2042 1988 1963 1932 1905 1884 1847 1809 1801 1764 1719 1694 1655 1627 1606 1576 1564 1538 1530 1519 1514 1493 1489 1470 1476 1480 1475 1465 1457 1451 1448 1443 1433 1420 1408 1400 1388 1381 1372 1363 1349 1338 1328 1321 1308 1297 1287 1281 1271 1260 1251 1244 1238 1231 1222 1215 1208 1201 1193 1182 1177 1173 1174 1176 1188 1207 1226 1233 1240 1245 1253 1262 1280 1297 1315 1329 1329 1322
1454 1463 1478 1496 1516 1536 1569 1576 1591 1604 1626 1657 1672 1681 1693 1705 1722 1739 1751 1763 1775 1786 1799 1812 1822 1832 1843 1853 1865 1885 1903 1917 1931 1942 1953 1960 1967 1974 1979 1988 1999 2008 2014 2022 2031 2041 2045 2051 2059 2066 2072 2081 2096 2110 2121 2131 2140 2149 2157 2164 2170 2174 2181 2185 2187 2188 2188 2191 2206 2220 2233 2238 2233 2261 2281 2290 2308 2314 2329 2356 2381 2425 2479 2512 2539 2572 2610 2625 2641 2648 2682 2719 2740 2758 2764 2774 2767 2722 2704 2679 2648 2607 2568 2556 2551 2529 2508 2510 2491 2474 2451 2436 2424 2402 2370 2333 2308 2294 2277 2262 2257 2241 2231 2224 2216 2205 2196 2186 2170 2163 2144 2121 2114 2087 2075 2023 1987 1939 1918 1884 1845 1810 1769 1741 1705 1680 1645 1618 1597 1577 1564 1554 1544 1528 1520 1515 1499 1483 1490 1495 1489 1480 1470 1463 1457 1451 1441 1428 1415 1400 1392 1380 1373 1359 1346 1335 1326 1316 1305 1293 1283 1275 1267 1257 1247 1241 1234 1226 1218 1212 1207 1201 1193 1186 1179 1174 1167 1165 1168 1192 1213 1228 1232 1236 1240 1247 1258 1275 1290 1300 1299 1298
1464 1472 1487 1508 1527 1543 1575 1580 1591 1614 1618 1650 1674 1686 1697 1712 1731 1744 1753 1766 1776 1787 1800 1814 1824 1834 1848 1861 1874 1888 1903 1917 1930 1943 1953 1964 1972 1981 1988 1995 2003 2010 2018 2027 2036 2047 2058 2062 2066 2073 2080 2093 2106 2122 2137 2140 2142 2149 2156 2162 2167 2176 2182 2187 2190 2193 2196 2202 2217 2225 2234 2240 2232 2255 2268 2285 2292 2311 2332 2346 2381 2422 2473 2488 2538 2568 2585 2608 2627 2638 2666 2706 2737 2761 2775 2772 2768 2729 2700 2680 2651 2599 2566 2563 2544 2522 2503 2487 2479 2458 2447 2432 2421 2395 2370 2338 2318 2296 2285 2270 2262 2250 2239 2230 2224 2217 2207 2192 2188 2162 2147 2135 2124 2119 2074 2036 1997 1953 1925 1887 1849 1809 1772 1746 1704 1679 1642 1610 1593 1580 1568 1563 1557 1545 1538 1532 1509 1503 1512 1506 1499 1489 1480 1471 1462 1454 1445 1432 1420 1413 1405 1393 1380 1364 1347 1339 1326 1313 1302 1289 1279 1272 1265 1253 1246 1240 1232 1223 1217 1212 1206 1201 1195 1187 1181 1174 1163 1159 1159 1173 1199 1219 1223 1225 1227 1233 1239 1251 1258 1268 1265 1281
1471 1482 1495 1516 1541 1554 1566 1585 1604 1617 1630 1654 1678 1689 1703 1721 1736 1748 1759 1769 1779 1791 1804 1815 1825 1838 1855 1871 1883 1895 1908 1923 1935 1948 1961 1972 1982 1990 1992 2000 2008 2016 2024 2031 2039 2051 2061 2068 2077 2086 2091 2098 2107 2116 2130 2141 2146 2150 2155 2163 2170 2179 2187 2191 2194 2200 2206 2213 2221 2228 2235 2238 2242 2244 2268 2282 2293 2306 2318 2344 2381 2419 2477 2489 2529 2559 2588 2599 2619 2632 2668 2699 2730 2763 2774 2781 2770 2743 2704 2687 2642 2587 2571 2556 2526 2518 2502 2484 2468 2445 2435 2424 2401 2381 2360 2334 2313 2301 2299 2287 2272 2255 2244 2238 2232 2222 2215 2200 2190 2175 2159 2137 2137 2121 2072 2053 2007 1965 1941 1891 1844 1817 1776 1745 1708 1673 1641 1611 1599 1588 1584 1574 1569 1571 1564 1549 1533 1524 1517 1511 1504 1496 1485 1476 1467 1458 1448 1438 1432 1429 1419 1408 1394 1378 1365 1350 1332 1316 1302 1289 1280 1272 1258 1248 1241 1236 1229 1221 1214 1210 1205 1198 1192 1187 1181 1174 1164 1158 1155 1158 1186 1208 1213 1215 1220 1224 1230 1232 1238 1240 1246 1257
1480 1493 1511 1532 1550 1565 1582 1599 1613 1629 1648 1663 1677 1690 1706 1722 1737 1751 1764 1774 1785 1795 1805 1817 1830 1847 1864 1876 1889 1905 1919 1929 1939 1951 1964 1980 1991 1997 2002 2004 2011 2022 2029 2037 2046 2056 2068 2077 2086 2095 2102 2110 2119 2128 2139 2150 2149 2151 2156 2161 2168 2175 2189 2195 2199 2208 2209 2219 2219 2223 2229 2236 2238 2257 2264 2273 2286 2309 2324 2346 2371 2421 2454 2496 2520 2550 2561 2599 2618 2641 2669 2692 2719 2758 2777 2788 2777 2754 2705 2687 2636 2581 2550 2539 2530 2513 2504 2485 2466 2450 2436 2418 2392 2373 2349 2335 2319 2314 2308 2300 2285 2265 2256 2245 2244 2238 2233 2224 2215 2188 2177 2146 2142 2130 2090 2052 2030 1999 1972 1934 1869 1822 1782 1727 1694 1665 1641 1621 1607 1597 1593 1588 1581 1576 1568 1558 1545 1533 1525 1518 1512 1505 1494 1483 1472 1462 1455 1449 1448 1449 1438 1422 1413 1402 1385 1365 1346 1326 1307 1293 1282 1272 1258 1242 1236 1230 1224 1218 1212 1207 1202 1194 1189 1184 1180 1176 1167 1161 1153 1152 1173 1193 1203 1208 1214 1222 1223 1222 1226 1230 1228 1230
1485 1506 1524 1542 1561 1579 1596 1610 1625 1640 1655 1668 1683 1698 1715 1729 1745 1761 1771 1781 1791 1799 1808 1821 1837 1853 1866 1878 1889 1905 1921 1930 1942 1957 1972 1986 1998 2006 2010 2013 2021 2030 2038 2045 2053 2064 2073 2080 2088 2099 2112 2119 2125 2134 2143 2149 2154 2159 2164 2169 2174 2182 2192 2196 2203 2204 2206 2212 2212 2215 2221 2227 2230 2245 2258 2268 2278 2305 2323 2341 2374 2403 2419 2480 2513 2557 2558 2592 2626 2659 2676 2697 2723 2764 2794 2790 2786 2759 2719 2680 2628 2586 2540 2535 2525 2510 2500 2485 2470 2453 2429 2415 2396 2373 2355 2338 2327 2320 2316 2312 2301 2285 2274 2267 2266 2264 2256 2250 2238 2213 2184 2166 2149 2130 2097 2074 2058 2008 1994 1931 1879 1829 1766 1729 1690 1668 1647 1636 1621 1613 1600 1598 1588 1578 1571 1563 1553 1545 1535 1527 1520 1511 1500 1485 1474 1467 1463 1461 1462 1464 1457 1450 1440 1428 1408 1390 1369 1338 1315 1299 1287 1279 1263 1249 1236 1228 1220 1215 1210 1206 1199 1193 1187 1183 1178 1173 1169 1160 1153 1148 1161 1180 1193 1199 1210 1217 1218 1217 1217 1215 1213 1211
1499 1512 1526 1546 1566 1584 1602 1618 1634 1650 1663 1673 1687 1706 1725 1745 1759 1767 1777 1789 1798 1807 1817 1829 1843 1857 1870 1884 1896 1907 1920 1934 1954 1970 1980 1992 2001 2008 2013 2020 2029 2039 2045 2051 2058 2067 2078 2086 2094 2102 2109 2118 2126 2134 2143 2149 2156 2164 2171 2176 2183 2187 2190 2195 2197 2197 2200 2205 2206 2211 2216 2225 2232 2247 2253 2255 2276 2292 2328 2339 2369 2389 2427 2462 2508 2559 2569 2589 2624 2660 2676 2700 2722 2759 2792 2797 2796 2766 2727 2676 2627 2581 2539 2532 2517 2514 2503 2491 2474 2460 2439 2418 2397 2375 2359 2340 2333 2326 2324 2318 2309 2300 2298 2292 2288 2287 2285 2280 2268 2247 2214 2188 2169 2141 2106 2085 2057 2050 1994 1936 1867 1817 1761 1726 1703 1664 1653 1642 1629 1618 1614 1607 1596 1585 1576 1566 1558 1549 1542 1534 1526 1516 1501 1487 1478 1474 1471 1470 1470 1475 1479 1475 1475 1459 1439 1429 1411 1378 1332 1311 1297 1287 1270 1253 1242 1229 1218 1209 1204 1201 1197 1190 1186 1179 1174 1170 1164 1157 1149 1144 1151 1167 1182 1191 1202 1209 1212 1210 1206 1203 1199 1196
1513 1528 1542 1558 1576 1594 1610 1627 1645 1658 1665 1678 1693 1713 1738 1752 1762 1774 1784 1794 1803 1811 1821 1832 1846 1862 1878 1888 1898 1909 1924 1943 1958 1967 1977 1988 2001 2014 2022 2026 2034 2044 2050 2056 2061 2067 2078 2088 2098 2108 2115 2121 2129 2136 2141 2147 2153 2161 2169 2176 2179 2180 2183 2189 2192 2191 2193 2197 2203 2210 2223 2232 2245 2253 2255 2259 2275 2294 2307 2328 2351 2381 2425 2467 2502 2534 2568 2592 2627 2654 2680 2701 2730 2767 2785 2794 2797 2766 2734 2678 2620 2587 2564 2536 2522 2517 2507 2493 2478 2463 2449 2430 2412 2391 2371 2356 2342 2337 2332 2326 2321 2317 2312 2309 2307 2303 2301 2299 2299 2281 2245 2224 2195 2157 2122 2101 2080 2061 2017 1947 1872 1823 1772 1734 1700 1672 1663 1655 1641 1632 1619 1609 1599 1589 1579 1568 1556 1549 1543 1536 1526 1516 1503 1492 1487 1483 1481 1480 1483 1488 1490 1495 1495 1486 1473 1466 1448 1427 1398 1344 1311 1294 1275 1257 1243 1230 1214 1204 1199 1194 1189 1185 1183 1175 1170 1166 1159 1152 1144 1140 1141 1152 1164 1184 1195 1198 1201 1201 1198 1194 1188 1183
1533 1549 1562 1576 1588 1604 1620 1636 1649 1661 1673 1688 1712 1732 1743 1755 1765 1776 1787 1796 1804 1815 1829 1841 1853 1866 1880 1892 1903 1913 1923 1938 1958 1971 1978 1990 2005 2020 2029 2034 2040 2047 2053 2056 2061 2068 2078 2088 2099 2108 2117 2126 2133 2139 2143 2147 2154 2161 2167 2174 2175 2175 2179 2183 2186 2186 2188 2194 2204 2215 2228 2248 2256 2258 2259 2266 2271 2282 2297 2311 2334 2376 2427 2467 2506 2536 2572 2594 2603 2642 2684 2712 2734 2770 2787 2804 2794 2775 2750 2709 2662 2606 2560 2546 2529 2517 2507 2494 2479 2465 2448 2437 2425 2407 2388 2375 2362 2353 2346 2339 2334 2332 2327 2326 2327 2324 2324 2325 2320 2308 2287 2256 2227 2200 2160 2129 2093 2068 2017 1958 1877 1825 1785 1735 1701 1675 1660 1661 1646 1633 1622 1608 1599 1591 1582 1568 1559 1551 1542 1531 1524 1515 1507 1498 1494 1490 1488 1487 1494 1503 1506 1512 1511 1503 1494 1483 1470 1454 1435 1413 1344 1293 1283 1266 1250 1230 1216 1205 1198 1188 1182 1179 1177 1172 1167 1164 1154 1145 1139 1134 1135 1142 1154 1172 1187 1191 1191 1190 1188 1183 1179 1176
1546 1564 1580 1591 1603 1619 1634 1647 1663 1679 1695 1712 1726 1740 1750 1759 1767 1778 1793 1805 1814 1825 1835 1847 1860 1874 1886 1899 1916 1926 1934 1948 1966 1978 1987 1999 2013 2025 2034 2039 2045 2051 2055 2060 2066 2073 2081 2090 2099 2107 2114 2123 2133 2143 2151 2154 2158 2163 2167 2170 2173 2176 2179 2180 2181 2183 2187 2195 2212 2220 2226 2250 2259 2259 2260 2266 2273 2277 2284 2299 2339 2366 2417 2460 2490 2519 2561 2579 2592 2608 2643 2707 2727 2774 2799 2800 2794 2778 2752 2718 2679 2601 2561 2550 2540 2526 2512 2494 2478 2459 2454 2446 2429 2419 2409 2390 2379 2371 2362 2355 2351 2348 2344 2341 2344 2344 2346 2345 2343 2335 2330 2283 2253 2208 2200 2154 2100 2073 2012 1951 1898 1839 1787 1740 1704 1678 1667 1662 1644 1637 1627 1617 1605 1595 1586 1575 1565 1555 1543 1533 1527 1523 1515 1509 1503 1500 1496 1497 1504 1514 1522 1525 1523 1516 1508 1499 1484 1470 1451 1426 1377 1336 1301 1278 1256 1234 1222 1212 1199 1186 1176 1173 1168 1165 1163 1158 1149 1143 1136 1132 1134 1139 1153 1164 1177 1179 1182 1179 1175 1172 1168 1167
1554 1580 1598 1614 1627 1638 1650 1666 1685 1700 1715 1724 1735 1747 1758 1767 1776 1790 1804 1815 1826 1836 1845 1853 1863 1874 1891 1917 1935 1942 1948 1960 1972 1986 1996 2012 2018 2027 2036 2040 2045 2051 2055 2061 2068 2076 2085 2093 2100 2109 2117 2125 2135 2144 2149 2152 2155 2160 2163 2166 2168 2173 2176 2177 2177 2181 2186 2196 2210 2226 2231 2245 2252 2259 2261 2265 2270 2277 2284 2301 2324 2368 2400 2436 2469 2495 2538 2565 2579 2596 2608 2663 2725 2752 2800 2803 2796 2779 2759 2717 2686 2621 2563 2541 2543 2527 2515 2496 2477 2463 2456 2452 2442 2429 2422 2411 2399 2390 2380 2372 2366 2363 2357 2352 2352 2359 2365 2365 2364 2354 2337 2325 2288 2260 2214 2185 2155 2077 2016 1966 1901 1852 1797 1752 1704 1693 1673 1660 1650 1644 1635 1624 1612 1602 1590 1581 1573 1562 1551 1542 1538 1533 1527 1519 1517 1512 1510 1505 1508 1515 1530 1531 1527 1525 1521 1512 1501 1481 1460 1434 1404 1376 1358 1307 1261 1253 1231 1220 1207 1187 1176 1169 1164 1160 1155 1151 1146 1141 1135 1130 1131 1134 1139 1152 1158 1165 1167 1169 1167 1162 1160 1160
1559 1580 1605 1628 1646 1663 1681 1696 1708 1720 1733 1743 1749 1756 1769 1780 1791 1801 1809 1818 1828 1842 1853 1866 1875 1884 1898 1922 1948 1955 1957 1970 1980 1997 2011 2020 2024 2031 2040 2046 2049 2052 2058 2064 2071 2078 2087 2095 2103 2111 2118 2125 2133 2141 2145 2149 2155 2159 2162 2164 2166 2169 2175 2178 2180 2184 2189 2199 2219 2232 2235 2238 2253 2259 2261 2265 2270 2281 2293 2296 2322 2353 2390 2419 2458 2474 2498 2547 2564 2581 2594 2642 2684 2718 2797 2803 2800 2790 2768 2732 2684 2641 2557 2547 2539 2528 2509 2486 2472 2463 2453 2444 2440 2436 2432 2418 2409 2400 2392 2386 2383 2374 2372 2368 2367 2375 2393 2392 2388 2376 2362 2345 2323 2295 2252 2210 2151 2087 2012 1964 1924 1866 1797 1762 1717 1698 1677 1670 1661 1654 1642 1630 1619 1608 1597 1587 1578 1570 1559 1551 1546 1541 1536 1528 1524 1522 1518 1510 1507 1512 1526 1531 1533 1533 1527 1520 1496 1483 1459 1439 1417 1398 1377 1338 1303 1284 1251 1227 1212 1192 1178 1169 1164 1157 1150 1143 1141 1137 1131 1127 1125 1125 1128 1135 1148 1151 1154 1157 1157 1154 1153 1152
1593 1607 1626 1645 1658 1682 1696 1716 1725 1737 1749 1756 1766 1774 1779 1787 1797 1807 1815 1824 1834 1848 1866 1881 1893 1905 1920 1936 1948 1960 1970 1983 1994 2006 2019 2029 2034 2040 2048 2051 2053 2058 2062 2067 2072 2081 2089 2096 2105 2110 2116 2124 2133 2141 2147 2153 2160 2166 2169 2169 2171 2170 2184 2188 2191 2188 2201 2219 2235 2240 2242 2247 2258 2261 2262 2264 2270 2279 2297 2304 2315 2332 2359 2391 2421 2473 2480 2511 2549 2556 2592 2596 2673 2720 2745 2784 2789 2781 2767 2739 2697 2642 2604 2554 2538 2517 2496 2478 2469 2462 2456 2449 2442 2437 2435 2433 2429 2416 2402 2396 2389 2386 2384 2382 2386 2390 2404 2412 2415 2406 2396 2366 2344 2318 2292 2229 2176 2111 2047 1991 1940 1868 1812 1777 1726 1704 1694 1680 1669 1660 1648 1638 1628 1615 1602 1591 1582 1573 1566 1559 1553 1550 1545 1539 1532 1529 1525 1520 1518 1522 1532 1535 1538 1537 1529 1514 1492 1472 1456 1444 1427 1403 1381 1358 1329 1300 1267 1245 1219 1199 1183 1172 1164 1156 1147 1142 1138 1135 1127 1122 1119 1117 1121 1133 1141 1143 1144 1147 1148 1148 1148 1148
1601 1619 1638 1649 1674 1701 1718 1738 1736 1747 1757 1764 1773 1787 1798 1804 1813 1825 1834 1840 1846 1858 1872 1887 1901 1912 1924 1937 1954 1973 1989 1996 2012 2023 2033 2042 2043 2047 2049 2052 2055 2060 2066 2070 2075 2083 2094 2101 2106 2112 2117 2123 2130 2138 2148 2161 2172 2176 2182 2180 2182 2192 2216 2210 2211 2218 2226 2240 2258 2252 2255 2257 2264 2263 2262 2264 2270 2281 2295 2304 2311 2330 2349 2373 2387 2416 2474 2488 2505 2543 2560 2589 2621 2707 2743 2776 2789 2787 2777 2736 2699 2670 2630 2572 2559 2511 2494 2479 2478 2461 2456 2453 2450 2451 2446 2444 2438 2429 2417 2411 2406 2401 2397 2396 2399 2404 2407 2411 2419 2430 2432 2428 2397 2342 2308 2271 2221 2140 2039 1993 1946 1882 1862 1794 1730 1710 1695 1683 1680 1667 1656 1646 1636 1622 1607 1597 1587 1580 1575 1567 1560 1554 1552 1544 1539 1535 1531 1534 1539 1542 1545 1544 1541 1536 1526 1512 1494 1478 1457 1441 1430 1406 1383 1361 1336 1308 1275 1250 1229 1209 1189 1173 1161 1152 1145 1139 1135 1130 1123 1117 1113 1113 1113 1123 1132 1138 1139 1142 1144 1146 1145 1144
1615 1638 1642 1648 1684 1716 1743 1752 1761 1769 1756 1788 1818 1821 1821 1826 1836 1842 1849 1856 1861 1869 1880 1893 1906 1917 1929 1943 1959 1979 1997 2014 2028 2036 2042 2046 2049 2051 2055 2057 2061 2067 2073 2075 2080 2089 2096 2103 2112 2119 2126 2131 2136 2145 2157 2172 2181 2185 2187 2193 2198 2210 2218 2227 2232 2246 2245 2254 2257 2262 2261 2266 2267 2266 2266 2266 2272 2280 2289 2294 2310 2322 2341 2356 2383 2409 2419 2479 2485 2532 2549 2578 2612 2658 2734 2773 2779 2778 2775 2757 2716 2682 2628 2591 2556 2516 2501 2487 2473 2464 2458 2454 2452 2452 2448 2451 2445 2437 2431 2422 2416 2409 2408 2403 2404 2411 2415 2418 2429 2442 2443 2444 2425 2401 2326 2300 2239 2154 2076 1990 1942 1901 1865 1797 1756 1716 1702 1696 1680 1672 1662 1651 1639 1627 1616 1605 1595 1588 1581 1574 1565 1559 1553 1548 1543 1541 1540 1545 1553 1556 1555 1552 1546 1539 1527 1515 1501 1488 1470 1446 1429 1409 1384 1364 1339 1317 1273 1252 1232 1217 1197 1176 1162 1148 1142 1138 1133 1126 1120 1114 1111 1112 1114 1114 1126 1134 1139 1139 1141 1142 1140 1138
1629 1649 1653 1661 1709 1727 1746 1761 1779 1791 1806 1831 1837 1842 1844 1845 1848 1852 1861 1868 1873 1881 1896 1910 1920 1927 1941 1956 1967 1978 1996 2010 2024 2036 2042 2047 2051 2057 2062 2066 2069 2076 2080 2083 2089 2094 2100 2105 2113 2130 2141 2150 2151 2159 2169 2177 2185 2189 2195 2203 2212 2218 2225 2233 2241 2251 2252 2252 2256 2258 2266 2270 2272 2275 2274 2274 2277 2283 2289 2294 2306 2323 2335 2358 2374 2382 2412 2437 2480 2500 2527 2559 2595 2637 2693 2760 2771 2777 2768 2762 2737 2722 2650 2600 2570 2518 2504 2486 2474 2468 2461 2459 2459 2455 2450 2454 2450 2444 2444 2436 2431 2427 2423 2417 2415 2419 2422 2430 2449 2467 2464 2470 2446 2416 2369 2318 2246 2193 2084 2054 1993 1898 1862 1829 1776 1740 1704 1691 1676 1674 1662 1651 1641 1632 1624 1615 1606 1596 1589 1581 1576 1568 1564 1558 1555 1552 1552 1555 1560 1562 1561 1556 1554 1548 1536 1521 1511 1499 1484 1463 1443 1425 1401 1376 1353 1341 1297 1260 1241 1224 1208 1182 1164 1149 1142 1138 1131 1125 1118 1112 1110 1112 1114 1116 1121 1128 1133 1135 1137 1136 1133 1130
1628 1653 1663 1685 1710 1729 1759 1786 1792 1805 1821 1839 1840 1853 1859 1860 1862 1868 1884 1894 1896 1904 1917 1931 1936 1940 1951 1964 1977 1988 1998 2009 2024 2037 2045 2053 2061 2069 2074 2077 2078 2080 2085 2090 2094 2098 2103 2112 2121 2140 2152 2156 2159 2167 2176 2189 2196 2200 2202 2213 2224 2225 2232 2237 2245 2251 2253 2254 2258 2265 2270 2274 2277 2281 2282 2281 2282 2288 2293 2294 2308 2322 2333 2352 2363 2376 2384 2422 2453 2491 2514 2559 2596 2640 2699 2724 2760 2765 2760 2754 2740 2718 2704 2635 2596 2551 2516 2501 2488 2481 2473 2469 2467 2462 2461 2459 2460 2458 2457 2454 2449 2446 2440 2436 2432 2428 2435 2450 2466 2481 2479 2481 2466 2446 2409 2349 2308 2209 2156 2051 2012 1904 1866 1829 1790 1760 1732 1702 1677 1672 1662 1652 1644 1639 1630 1622 1615 1610 1601 1597 1592 1588 1580 1575 1569 1566 1564 1567 1569 1569 1569 1568 1565 1561 1550 1537 1526 1516 1502 1485 1467 1439 1421 1394 1378 1352 1334 1294 1268 1237 1213 1188 1168 1151 1141 1134 1129 1124 1118 1113 1109 1110 1113 1115 1116 1119 1123 1127 1133 1130 1126 1123
1617 1646 1671 1709 1731 1742 1774 1789 1800 1822 1837 1857 1857 1873 1886 1891 1898 1919 1936 1933 1930 1927 1926 1935 1944 1950 1960 1975 1986 1995 2006 2021 2033 2043 2053 2063 2072 2081 2087 2088 2087 2088 2091 2095 2099 2102 2111 2125 2139 2151 2158 2163 2168 2176 2185 2193 2202 2204 2211 2218 2223 2231 2235 2244 2248 2256 2259 2263 2268 2273 2278 2281 2285 2287 2288 2288 2290 2293 2295 2298 2313 2322 2329 2346 2359 2364 2378 2413 2453 2492 2507 2555 2600 2641 2702 2731 2747 2772 2771 2761 2743 2723 2710 2682 2638 2578 2539 2514 2497 2495 2490 2488 2484 2483 2480 2477 2467 2464 2468 2465 2459 2455 2453 2448 2445 2445 2451 2465 2477 2488 2489 2487 2474 2448 2416 2359 2325 2257 2168 2119 2027 1965 1892 1832 1792 1779 1748 1720 1694 1682 1669 1659 1651 1645 1634 1628 1623 1620 1616 1613 1611 1608 1596 1591 1582 1576 1576 1574 1577 1580 1585 1585 1582 1575 1568 1557 1544 1531 1524 1508 1500 1470 1451 1430 1397 1376 1355 1328 1302 1282 1211 1192 1174 1153 1141 1131 1125 1124 1121 1114 1109 1109 1110 1110 1108 1112 1114 1118 1122 1126 1122 1119
1621 1644 1677 1711 1734 1757 1775 1800 1807 1818 1850 1871 1874 1895 1904 1912 1919 1926 1935 1946 1949 1945 1943 1943 1947 1969 1989 1995 2001 2009 2019 2030 2040 2051 2061 2071 2080 2090 2098 2102 2105 2105 2101 2104 2104 2110 2119 2134 2150 2157 2168 2170 2177 2185 2190 2192 2200 2208 2217 2223 2231 2237 2243 2252 2257 2264 2271 2273 2273 2280 2287 2290 2291 2293 2292 2293 2296 2298 2299 2301 2307 2315 2328 2332 2342 2360 2374 2393 2439 2491 2512 2564 2599 2645 2702 2729 2748 2772 2777 2768 2754 2724 2703 2681 2650 2601 2572 2537 2517 2511 2508 2505 2503 2501 2499 2498 2492 2481 2474 2470 2466 2464 2462 2459 2458 2464 2471 2476 2479 2482 2494 2492 2478 2453 2414 2360 2325 2264 2188 2116 2048 1967 1900 1840 1821 1787 1778 1740 1708 1707 1691 1677 1666 1657 1650 1640 1637 1633 1629 1628 1626 1622 1616 1605 1597 1586 1580 1580 1586 1591 1595 1600 1593 1588 1580 1574 1556 1543 1533 1523 1509 1497 1475 1454 1436 1409 1374 1344 1318 1307 1283 1233 1207 1144 1142 1132 1128 1124 1122 1117 1112 1109 1107 1106 1108 1110 1113 1114 1121 1123 1123 1118
1622 1644 1671 1705 1730 1769 1785 1805 1809 1820 1853 1879 1886 1920 1945 1924 1933 1940 1950 1960 1964 1966 1957 1956 1982 1998 2006 2014 2016 2022 2031 2040 2056 2067 2076 2089 2101 2112 2121 2126 2127 2125 2120 2112 2113 2118 2124 2131 2149 2158 2169 2176 2182 2188 2192 2194 2201 2214 2222 2230 2237 2243 2251 2254 2263 2272 2276 2276 2278 2284 2292 2294 2296 2295 2296 2298 2299 2300 2301 2300 2305 2312 2319 2330 2339 2364 2383 2390 2431 2471 2511 2568 2591 2646 2706 2726 2750 2772 2777 2781 2770 2748 2720 2693 2671 2646 2605 2575 2550 2536 2528 2519 2514 2513 2512 2511 2504 2492 2482 2475 2472 2472 2471 2471 2469 2469 2472 2478 2481 2489 2500 2485 2474 2447 2404 2353 2301 2260 2202 2151 2093 1996 1938 1891 1823 1812 1771 1766 1735 1726 1714 1701 1683 1674 1663 1658 1652 1651 1643 1640 1634 1626 1623 1615 1608 1597 1596 1592 1597 1604 1604 1605 1603 1599 1596 1579 1566 1554 1540 1528 1513 1495 1480 1467 1455 1429 1381 1362 1336 1318 1289 1276 1229 1190 1147 1142 1132 1126 1120 1117 1111 1107 1103 1101 1108 1116 1115 1117 1121 1126 1123 1119
1638 1651 1683 1724 1766 1770 1804 1816 1818 1835 1866 1896 1923 1939 1965 1976 1975 1980 1979 1989 1999 1998 2004 2040 2057 2043 2035 2040 2052 2065 2073 2082 2086 2091 2103 2117 2131 2144 2143 2142 2142 2142 2135 2128 2125 2124 2129 2135 2144 2157 2166 2173 2180 2189 2193 2196 2203 2214 2226 2232 2240 2247 2256 2261 2267 2276 2278 2279 2282 2289 2294 2298 2301 2302 2302 2302 2301 2303 2303 2306 2308 2311 2320 2332 2346 2368 2385 2387 2417 2455 2494 2513 2579 2637 2684 2730 2746 2766 2784 2783 2781 2768 2742 2713 2695 2668 2638 2610 2574 2564 2552 2540 2534 2531 2526 2526 2518 2501 2486 2481 2479 2486 2485 2479 2478 2477 2482 2484 2488 2497 2484 2477 2462 2445 2385 2341 2277 2230 2198 2159 2100 2043 1978 1903 1868 1808 1793 1759 1713 1721 1725 1706 1694 1682 1674 1666 1662 1656 1651 1647 1640 1634 1630 1628 1620 1616 1618 1618 1614 1613 1614 1616 1614 1613 1612 1601 1576 1562 1549 1537 1518 1499 1476 1461 1448 1435 1410 1376 1350 1327 1310 1298 1250 1210 1203 1165 1139 1127 1118 1112 1106 1102 1096 1094 1100 1111 1113 1113 1118 1121 1119 1111
1654 1686 1704 1727 1763 1790 1805 1826 1840 1856 1880 1910 1944 1967 1984 1986 1991 2003 2012 2016 2028 2047 2066 2065 2065 2067 2070 2083 2095 2099 2107 2126 2138 2131 2127 2141 2151 2158 2161 2158 2158 2158 2152 2148 2134 2134 2136 2143 2152 2160 2166 2172 2181 2191 2195 2200 2208 2216 2227 2232 2235 2244 2259 2265 2272 2277 2279 2283 2288 2294 2299 2303 2307 2311 2310 2309 2309 2308 2309 2309 2308 2311 2320 2331 2348 2365 2375 2389 2405 2440 2477 2503 2551 2603 2642 2680 2747 2764 2779 2790 2782 2784 2773 2755 2728 2704 2661 2633 2604 2585 2574 2565 2553 2536 2536 2529 2521 2510 2502 2499 2495 2498 2491 2488 2490 2492 2495 2494 2493 2506 2479 2460 2438 2389 2349 2319 2266 2214 2194 2162 2103 2066 2012 1956 1900 1854 1836 1804 1727 1739 1731 1723 1708 1694 1684 1675 1667 1659 1653 1651 1648 1642 1643 1642 1644 1640 1642 1640 1639 1627 1630 1629 1623 1622 1622 1614 1594 1575 1558 1550 1538 1514 1481 1455 1439 1427 1410 1386 1351 1332 1322 1299 1270 1240 1199 1205 1156 1122 1116 1107 1102 1097 1093 1091 1097 1103 1106 1108 1113 1111 1106 1105
1665 1681 1709 1720 1757 1791 1812 1836 1854 1879 1900 1932 1943 1963 1983 1987 2008 2021 2029 2044 2053 2059 2071 2076 2078 2081 2088 2099 2112 2131 2152 2164 2167 2168 2169 2168 2169 2168 2172 2176 2179 2177 2176 2172 2159 2152 2153 2156 2160 2166 2170 2176 2187 2195 2199 2203 2212 2221 2228 2230 2233 2237 2252 2263 2273 2277 2283 2288 2295 2299 2304 2309 2314 2320 2318 2318 2315 2314 2313 2312 2310 2314 2323 2336 2352 2361 2376 2396 2409 2424 2448 2473 2508 2550 2622 2676 2708 2755 2758 2783 2784 2783 2783 2771 2761 2727 2710 2674 2645 2614 2593 2577 2562 2551 2537 2529 2523 2515 2510 2507 2508 2505 2501 2499 2504 2506 2508 2511 2512 2506 2463 2436 2391 2358 2335 2304 2259 2208 2193 2149 2109 2091 2021 1983 1950 1921 1896 1848 1776 1774 1767 1754 1732 1707 1696 1685 1677 1665 1659 1655 1652 1650 1650 1655 1659 1662 1662 1659 1647 1642 1644 1646 1641 1631 1628 1621 1610 1594 1573 1564 1556 1539 1505 1457 1448 1429 1415 1392 1371 1350 1332 1310 1290 1262 1230 1199 1176 1116 1105 1103 1098 1093 1090 1090 1091 1094 1098 1105 1108 1104 1103 1103
1683 1694 1715 1736 1742 1787 1831 1849 1886 1894 1906 1952 1956 1970 1986 1994 2010 2031 2043 2054 2069 2078 2088 2094 2101 2108 2119 2130 2141 2153 2165 2176 2182 2188 2192 2195 2186 2183 2203 2193 2195 2194 2194 2186 2181 2173 2170 2170 2170 2174 2179 2183 2194 2200 2204 2209 2214 2222 2226 2231 2234 2240 2252 2264 2273 2281 2288 2296 2301 2305 2310 2314 2319 2322 2324 2322 2320 2317 2315 2313 2312 2315 2326 2339 2354 2367 2373 2388 2399 2422 2440 2472 2493 2542 2578 2660 2684 2714 2749 2755 2778 2783 2783 2788 2779 2762 2726 2709 2667 2648 2607 2600 2579 2557 2545 2538 2529 2521 2517 2517 2515 2512 2508 2508 2513 2517 2514 2509 2506 2490 2427 2382 2356 2333 2297 2259 2232 2208 2177 2135 2113 2086 2034 2012 1973 1958 1934 1926 1876 1846 1826 1802 1773 1758 1697 1690 1682 1678 1669 1664 1658 1655 1658 1665 1675 1682 1681 1677 1662 1653 1662 1672 1660 1652 1639 1630 1624 1613 1593 1583 1576 1564 1527 1486 1466 1451 1422 1414 1391 1374 1354 1316 1311 1288 1246 1218 1192 1155 1105 1103 1096 1088 1085 1084 1084 1085 1092 1102 1106 1103 1100 1099
1685 1693 1713 1742 1747 1782 1827 1857 1888 1908 1961 1957 1968 1977 1987 1997 2015 2036 2057 2072 2090 2105 2108 2128 2145 2152 2158 2157 2179 2180 2192 2202 2213 2224 2228 2230 2233 2249 2255 2240 2214 2206 2207 2213 2198 2199 2187 2184 2181 2188 2193 2194 2199 2205 2209 2214 2219 2221 2223 2226 2235 2245 2261 2269 2277 2283 2292 2301 2306 2312 2316 2318 2320 2327 2329 2327 2323 2321 2318 2318 2309 2321 2331 2342 2357 2370 2381 2393 2405 2415 2440 2460 2500 2548 2566 2606 2662 2690 2715 2752 2755 2781 2786 2790 2786 2774 2762 2727 2692 2662 2629 2607 2580 2567 2556 2544 2536 2528 2526 2523 2521 2517 2513 2513 2517 2518 2514 2508 2502 2430 2381 2357 2338 2300 2257 2235 2210 2178 2149 2110 2095 2076 2055 2020 2007 1989 1988 1971 1954 1897 1903 1849 1827 1791 1762 1687 1683 1682 1679 1670 1663 1660 1666 1679 1692 1698 1698 1693 1686 1674 1683 1685 1678 1665 1657 1652 1638 1633 1617 1605 1599 1582 1542 1518 1489 1477 1442 1422 1388 1401 1365 1331 1317 1313 1302 1226 1192 1166 1138 1106 1095 1083 1080 1076 1076 1081 1087 1096 1100 1099 1096 1095
1682 1698 1711 1726 1740 1780 1810 1853 1895 1932 1957 1969 1982 1986 1990 1999 2017 2032 2051 2080 2107 2114 2127 2150 2158 2170 2176 2184 2185 2221 2253 2262 2238 2272 2285 2288 2288 2283 2287 2285 2264 2235 2249 2246 2249 2233 2226 2216 2212 2206 2206 2206 2206 2211 2217 2220 2222 2221 2220 2225 2237 2248 2263 2274 2278 2287 2298 2306 2313 2318 2322 2325 2330 2333 2337 2337 2333 2330 2329 2330 2326 2339 2343 2352 2365 2374 2381 2391 2403 2415 2429 2459 2499 2532 2557 2583 2615 2668 2699 2729 2748 2772 2784 2802 2795 2790 2769 2745 2714 2686 2654 2615 2596 2571 2559 2548 2540 2534 2533 2528 2525 2522 2519 2522 2522 2523 2515 2502 2472 2436 2379 2350 2296 2274 2229 2211 2174 2149 2117 2098 2086 2069 2062 2043 2025 2007 2006 1992 1979 1966 1920 1912 1867 1831 1790 1748 1680 1687 1684 1681 1671 1671 1676 1691 1702 1705 1703 1702 1702 1697 1705 1696 1688 1679 1676 1673 1665 1650 1634 1625 1614 1599 1575 1558 1543 1510 1477 1455 1450 1416 1369 1365 1339 1324 1301 1303 1212 1173 1142 1108 1103 1083 1074 1070 1073 1080 1086 1090 1093 1094 1093 1091
1674 1697 1707 1718 1735 1763 1806 1854 1895 1935 1962 1982 1986 1989 2000 2004 2009 2024 2043 2082 2113 2122 2141 2150 2170 2191 2195 2201 2231 2269 2275 2285 2297 2309 2310 2333 2319 2339 2328 2326 2300 2284 2278 2277 2273 2275 2260 2276 2243 2228 2222 2219 2221 2221 2222 2223 2225 2223 2227 2233 2242 2253 2264 2272 2279 2289 2301 2310 2315 2322 2327 2333 2339 2344 2347 2347 2344 2341 2342 2344 2348 2345 2353 2358 2367 2379 2389 2399 2411 2419 2436 2452 2490 2537 2548 2574 2596 2628 2669 2730 2744 2765 2801 2807 2814 2812 2792 2777 2734 2708 2682 2643 2616 2585 2566 2556 2547 2537 2537 2535 2537 2530 2531 2534 2537 2531 2522 2504 2479 2415 2382 2341 2299 2273 2234 2186 2148 2115 2093 2082 2076 2062 2054 2054 2040 2028 2019 2010 1995 1973 1960 1932 1890 1861 1810 1771 1702 1705 1705 1698 1687 1688 1689 1701 1706 1704 1704 1706 1713 1720 1720 1710 1705 1698 1689 1684 1676 1663 1652 1643 1629 1618 1588 1581 1555 1515 1492 1476 1461 1422 1402 1376 1344 1331 1309 1298 1215 1176 1141 1109 1094 1094 1073 1068 1071 1077 1081 1085 1086 1086 1088 1088
1674 1696 1707 1711 1719 1743 1811 1871 1901 1940 1970 1987 2000 1996 1998 2005 2006 2007 2014 2048 2078 2131 2146 2156 2176 2194 2210 2220 2248 2292 2288 2299 2311 2331 2342 2352 2356 2353 2346 2335 2322 2306 2299 2291 2286 2282 2287 2280 2270 2260 2244 2244 2238 2230 2227 2227 2232 2239 2241 2246 2250 2259 2267 2275 2282 2294 2303 2310 2316 2323 2331 2337 2343 2349 2352 2351 2350 2349 2351 2354 2357 2358 2362 2364 2371 2379 2391 2401 2411 2429 2433 2447 2479 2528 2549 2569 2589 2616 2637 2677 2749 2761 2800 2821 2833 2830 2811 2802 2774 2730 2705 2677 2627 2609 2589 2577 2568 2556 2552 2548 2543 2544 2546 2550 2555 2541 2534 2509 2477 2419 2383 2345 2292 2271 2241 2183 2139 2120 2097 2079 2060 2059 2055 2053 2049 2039 2031 2018 1997 1979 1962 1939 1908 1865 1816 1775 1732 1746 1732 1713 1703 1694 1698 1707 1708 1706 1707 1713 1723 1729 1730 1724 1720 1712 1701 1692 1683 1683 1663 1656 1644 1627 1611 1584 1565 1537 1514 1495 1467 1450 1432 1384 1347 1326 1311 1264 1224 1182 1154 1122 1098 1088 1073 1071 1068 1071 1075 1080 1082 1082 1083 1086
1666 1686 1706 1709 1722 1745 1811 1883 1909 1921 1945 1995 1997 2001 1996 1995 1992 1983 2006 2018 2045 2109 2147 2153 2164 2200 2228 2249 2267 2271 2288 2301 2314 2326 2349 2361 2364 2358 2352 2341 2333 2324 2313 2307 2298 2301 2305 2300 2283 2288 2278 2273 2259 2252 2241 2242 2247 2255 2259 2259 2261 2266 2275 2281 2291 2301 2307 2311 2317 2328 2336 2341 2347 2354 2356 2357 2356 2356 2358 2360 2362 2366 2372 2377 2384 2390 2399 2404 2415 2424 2432 2448 2482 2529 2548 2575 2600 2621 2637 2680 2700 2754 2797 2830 2839 2844 2826 2817 2797 2744 2709 2679 2651 2633 2609 2596 2582 2571 2559 2551 2543 2545 2554 2550 2550 2556 2541 2504 2467 2425 2382 2341 2308 2269 2235 2194 2138 2119 2095 2080 2065 2054 2049 2044 2043 2037 2032 2019 2003 1984 1969 1942 1921 1872 1826 1779 1738 1707 1710 1727 1709 1693 1696 1705 1709 1709 1713 1713 1734 1734 1726 1721 1716 1714 1706 1704 1680 1676 1666 1655 1636 1626 1606 1582 1570 1539 1522 1496 1481 1476 1434 1387 1348 1322 1291 1253 1226 1176 1152 1135 1105 1098 1093 1080 1074 1070 1071 1075 1076 1076 1076 1083
1662 1682 1690 1715 1737 1762 1815 1877 1893 1911 1928 1947 2001 2001 1995 1980 1974 1972 1981 1960 2069 2103 2125 2141 2154 2179 2201 2232 2245 2264 2277 2295 2310 2327 2347 2361 2362 2359 2354 2347 2342 2340 2337 2331 2335 2328 2329 2329 2320 2315 2306 2304 2295 2287 2281 2267 2273 2270 2274 2272 2270 2277 2285 2293 2302 2307 2313 2317 2324 2334 2341 2345 2351 2358 2364 2366 2366 2365 2365 2365 2367 2370 2376 2379 2381 2393 2401 2407 2412 2417 2432 2444 2477 2522 2543 2577 2615 2633 2654 2689 2705 2756 2796 2834 2842 2840 2838 2822 2814 2774 2716 2689 2656 2652 2620 2604 2586 2572 2557 2548 2539 2532 2547 2550 2551 2548 2538 2498 2465 2429 2381 2338 2313 2264 2237 2203 2150 2122 2098 2092 2072 2060 2046 2049 2046 2039 2033 2019 1998 1988 1971 1948 1903 1876 1828 1771 1738 1696 1694 1696 1689 1686 1692 1698 1701 1702 1698 1704 1710 1720 1718 1716 1707 1697 1701 1686 1676 1666 1655 1637 1629 1612 1589 1574 1539 1532 1509 1493 1483 1476 1415 1389 1344 1317 1278 1249 1196 1171 1155 1130 1119 1108 1101 1095 1085 1075 1071 1068 1068 1066 1069 1077
1653 1674 1691 1713 1745 1773 1804 1856 1881 1899 1914 1932 1947 1963 1958 1961 1971 1950 1950 1956 2024 2057 2097 2118 2126 2145 2163 2188 2229 2250 2266 2285 2295 2323 2340 2357 2359 2361 2357 2356 2362 2358 2366 2373 2367 2364 2352 2345 2347 2347 2335 2325 2324 2318 2313 2310 2301 2298 2291 2285 2290 2300 2304 2311 2318 2324 2326 2330 2333 2340 2347 2353 2358 2364 2368 2372 2374 2373 2372 2370 2371 2375 2374 2378 2387 2397 2403 2407 2412 2416 2435 2458 2484 2520 2553 2582 2601 2635 2656 2693 2722 2757 2793 2825 2835 2834 2832 2823 2810 2771 2717 2694 2663 2654 2615 2607 2584 2567 2544 2542 2528 2518 2520 2534 2539 2539 2514 2494 2464 2442 2407 2354 2319 2275 2238 2213 2191 2143 2122 2097 2092 2078 2062 2057 2049 2045 2037 2023 2006 1990 1969 1942 1908 1853 1807 1754 1724 1691 1677 1674 1682 1677 1680 1688 1685 1687 1691 1690 1685 1699 1698 1679 1679 1670 1675 1666 1642 1628 1621 1618 1601 1595 1565 1545 1527 1512 1487 1487 1474 1423 1412 1381 1343 1306 1269 1231 1193 1171 1156 1139 1132 1119 1112 1104 1094 1082 1072 1066 1062 1061 1065 1073
1653 1672 1690 1719 1752 1776 1799 1825 1866 1877 1903 1914 1917 1928 1967 1960 1952 1944 1943 1969 1994 2042 2075 2090 2101 2119 2124 2139 2193 2213 2243 2255 2271 2283 2322 2337 2352 2356 2362 2371 2385 2383 2390 2388 2390 2380 2373 2366 2365 2364 2365 2357 2349 2346 2333 2335 2326 2321 2314 2310 2317 2320 2327 2326 2330 2329 2331 2334 2338 2343 2350 2357 2364 2369 2373 2377 2379 2380 2379 2380 2381 2380 2379 2387 2396 2406 2410 2419 2417 2428 2443 2462 2498 2522 2556 2578 2610 2639 2671 2698 2721 2755 2787 2810 2829 2830 2827 2816 2798 2778 2724 2692 2670 2637 2607 2591 2565 2545 2524 2500 2487 2485 2485 2495 2505 2508 2500 2482 2459 2438 2421 2359 2326 2287 2271 2245 2209 2178 2138 2126 2119 2105 2096 2094 2072 2054 2045 2031 2017 1994 1977 1943 1883 1847 1781 1752 1721 1687 1666 1659 1656 1663 1669 1666 1662 1657 1654 1653 1654 1646 1654 1646 1641 1645 1641 1636 1620 1608 1589 1595 1572 1567 1547 1530 1514 1492 1477 1460 1441 1407 1376 1363 1352 1318 1256 1234 1197 1179 1162 1152 1141 1129 1116 1112 1101 1086 1071 1062 1058 1059 1063 1068
1647 1669 1688 1716 1752 1762 1804 1813 1829 1872 1871 1880 1889 1978 1967 1950 1938 1933 1932 1965 2009 2033 2049 2062 2085 2099 2107 2106 2122 2162 2189 2231 2236 2258 2282 2317 2333 2350 2368 2380 2390 2395 2396 2396 2395 2395 2390 2387 2388 2385 2393 2384 2379 2372 2364 2359 2357 2341 2331 2325 2326 2330 2332 2331 2330 2330 2332 2335 2339 2345 2352 2359 2366 2373 2379 2385 2387 2389 2389 2389 2391 2394 2394 2396 2406 2418 2423 2433 2445 2448 2467 2483 2513 2551 2569 2600 2635 2661 2683 2702 2724 2754 2783 2795 2805 2822 2820 2798 2783 2741 2720 2690 2665 2623 2589 2577 2544 2518 2501 2483 2463 2460 2458 2465 2475 2488 2488 2480 2468 2455 2430 2381 2335 2298 2289 2260 2227 2218 2177 2139 2132 2134 2134 2132 2130 2106 2071 2046 2037 2013 1994 1955 1891 1837 1774 1750 1711 1683 1652 1652 1646 1652 1653 1648 1646 1641 1636 1637 1630 1626 1627 1625 1608 1598 1604 1588 1566 1560 1562 1557 1551 1543 1533 1521 1504 1477 1459 1437 1419 1395 1360 1347 1327 1280 1246 1242 1208 1190 1179 1159 1143 1127 1116 1116 1107 1093 1075 1062 1057 1055 1058 1063
1649 1672 1693 1710 1742 1761 1772 1798 1812 1831 1841 1877 1875 1900 1914 1918 1922 1935 1935 1960 1995 2000 2017 2030 2054 2072 2072 2078 2107 2122 2173 2216 2235 2249 2278 2304 2328 2344 2369 2384 2392 2396 2400 2402 2403 2407 2406 2408 2409 2409 2409 2402 2400 2390 2384 2381 2376 2359 2338 2330 2332 2335 2336 2334 2334 2335 2339 2341 2343 2349 2356 2361 2365 2371 2379 2388 2396 2402 2403 2403 2402 2402 2406 2409 2418 2428 2438 2451 2460 2466 2483 2494 2538 2565 2594 2627 2657 2668 2687 2701 2730 2753 2770 2786 2795 2799 2789 2788 2763 2726 2710 2673 2642 2599 2590 2564 2525 2498 2472 2464 2451 2445 2446 2451 2457 2464 2474 2478 2472 2457 2440 2413 2361 2324 2290 2259 2250 2221 2217 2180 2167 2162 2176 2169 2145 2126 2105 2077 2053 2038 2005 1965 1885 1835 1787 1748 1722 1691 1670 1650 1648 1645 1644 1637 1630 1634 1626 1626 1617 1606 1609 1614 1596 1572 1579 1555 1561 1546 1545 1534 1532 1524 1516 1507 1498 1482 1454 1431 1415 1382 1353 1335 1318 1286 1244 1225 1201 1191 1177 1161 1146 1133 1123 1118 1112 1103 1090 1076 1061 1054 1049 1049
1659 1677 1694 1706 1730 1744 1759 1778 1806 1816 1832 1840 1857 1879 1897 1905 1902 1921 1940 1948 1966 1977 2002 2020 2026 2048 2055 2072 2077 2128 2166 2206 2232 2257 2279 2305 2322 2337 2357 2376 2388 2396 2401 2405 2408 2413 2419 2423 2428 2427 2428 2429 2422 2412 2404 2403 2388 2361 2349 2337 2343 2345 2344 2341 2342 2346 2348 2350 2353 2358 2362 2367 2372 2378 2384 2396 2406 2411 2414 2414 2415 2416 2420 2425 2432 2445 2454 2462 2471 2483 2495 2526 2544 2575 2611 2650 2666 2680 2696 2705 2717 2732 2756 2765 2770 2772 2767 2765 2725 2704 2674 2649 2606 2589 2565 2526 2496 2474 2445 2428 2425 2429 2427 2436 2439 2449 2462 2472 2475 2466 2450 2435 2391 2353 2325 2288 2262 2243 2219 2216 2212 2200 2195 2183 2173 2137 2123 2111 2083 2047 2006 1969 1914 1849 1774 1762 1712 1679 1669 1652 1654 1651 1649 1637 1630 1626 1623 1621 1612 1602 1598 1599 1579 1567 1555 1558 1546 1544 1537 1532 1517 1501 1503 1497 1488 1461 1443 1435 1405 1377 1342 1318 1293 1265 1236 1219 1206 1195 1184 1170 1150 1137 1129 1117 1113 1106 1095 1078 1065 1053 1045 1043
1661 1671 1684 1697 1722 1738 1739 1762 1780 1806 1812 1832 1851 1857 1871 1894 1908 1915 1931 1944 1955 1967 1993 2005 2013 2027 2041 2054 2082 2114 2137 2180 2198 2221 2250 2262 2297 2330 2349 2358 2378 2386 2391 2401 2406 2411 2425 2440 2444 2447 2446 2446 2442 2430 2426 2422 2406 2388 2373 2368 2366 2370 2362 2355 2353 2357 2361 2364 2366 2368 2373 2381 2389 2394 2398 2405 2412 2416 2418 2420 2424 2429 2435 2445 2455 2463 2469 2480 2495 2513 2525 2540 2544 2576 2615 2661 2678 2691 2703 2713 2722 2729 2742 2750 2754 2764 2761 2727 2706 2671 2656 2610 2597 2561 2526 2500 2471 2434 2392 2397 2391 2410 2411 2418 2425 2435 2448 2463 2472 2473 2462 2438 2415 2377 2349 2318 2264 2261 2258 2257 2240 2233 2214 2202 2174 2143 2129 2107 2090 2067 2040 1997 1936 1888 1833 1775 1736 1701 1686 1669 1681 1670 1659 1645 1637 1631 1618 1612 1606 1601 1605 1598 1581 1574 1569 1559 1552 1546 1525 1515 1504 1494 1489 1468 1469 1453 1438 1411 1386 1361 1321 1301 1282 1253 1239 1218 1205 1191 1180 1162 1147 1136 1126 1115 1109 1101 1092 1081 1070 1059 1050 1041
1657 1669 1679 1704 1719 1741 1743 1747 1773 1795 1816 1834 1846 1861 1865 1894 1904 1919 1934 1942 1948 1956 1993 2006 2011 2028 2046 2056 2082 2105 2134 2166 2197 2225 2243 2244 2277 2308 2335 2363 2373 2389 2390 2395 2404 2417 2432 2454 2461 2464 2459 2456 2452 2447 2447 2450 2430 2423 2411 2406 2405 2401 2392 2373 2369 2372 2377 2379 2382 2384 2389 2394 2402 2410 2414 2418 2421 2425 2428 2432 2434 2437 2446 2457 2466 2475 2485 2496 2511 2522 2540 2549 2559 2572 2622 2656 2674 2686 2703 2710 2723 2729 2734 2738 2741 2728 2726 2708 2670 2655 2611 2608 2568 2527 2507 2465 2428 2393 2391 2389 2388 2385 2394 2397 2396 2420 2441 2452 2467 2469 2457 2438 2424 2396 2376 2335 2316 2267 2267 2261 2251 2240 2229 2206 2187 2151 2127 2108 2094 2081 2042 1995 1956 1935 1850 1707 1721 1701 1697 1687 1682 1675 1666 1657 1651 1647 1633 1627 1622 1619 1617 1603 1591 1588 1585 1571 1560 1549 1534 1520 1508 1495 1475 1463 1452 1441 1423 1391 1359 1339 1313 1290 1281 1252 1234 1212 1200 1184 1170 1155 1144 1143 1123 1111 1101 1097 1091 1081 1070 1061 1050 1040
1655 1668 1682 1703 1723 1742 1744 1753 1777 1803 1821 1837 1851 1857 1887 1908 1920 1933 1944 1941 1950 1970 1991 2011 2013 2041 2048 2070 2077 2098 2124 2161 2186 2222 2234 2250 2284 2305 2335 2352 2363 2379 2390 2393 2413 2440 2456 2466 2470 2470 2470 2467 2466 2459 2470 2500 2464 2451 2440 2436 2431 2427 2414 2397 2386 2387 2390 2391 2394 2398 2402 2406 2413 2419 2424 2429 2432 2435 2441 2447 2450 2455 2464 2475 2485 2495 2505 2517 2531 2537 2548 2553 2564 2582 2620 2653 2677 2689 2698 2710 2712 2717 2722 2726 2710 2698 2697 2666 2637 2606 2607 2566 2518 2472 2450 2427 2383 2364 2364 2358 2373 2380 2380 2380 2389 2399 2435 2447 2451 2453 2447 2438 2421 2402 2390 2371 2328 2299 2269 2258 2248 2234 2224 2199 2166 2142 2124 2113 2101 2082 2057 2016 1979 1935 1879 1825 1709 1705 1695 1692 1686 1689 1680 1670 1661 1661 1659 1651 1642 1641 1629 1622 1618 1611 1597 1583 1576 1560 1544 1532 1522 1504 1475 1467 1454 1423 1403 1374 1352 1332 1310 1300 1282 1255 1235 1219 1202 1183 1165 1162 1151 1134 1119 1105 1099 1093 1086 1078 1068 1058 1048 1037
1667 1678 1691 1707 1726 1742 1747 1771 1799 1805 1823 1846 1855 1879 1904 1922 1933 1946 1951 1962 1967 1988 2006 2018 2046 2051 2071 2073 2090 2097 2133 2156 2189 2217 2232 2245 2292 2317 2332 2348 2361 2359 2383 2404 2425 2449 2486 2478 2480 2482 2483 2485 2488 2491 2477 2502 2502 2481 2464 2455 2451 2446 2429 2411 2400 2401 2404 2404 2404 2408 2412 2416 2420 2429 2438 2441 2443 2451 2460 2465 2469 2475 2482 2493 2504 2512 2520 2532 2544 2554 2555 2576 2577 2600 2627 2651 2678 2688 2694 2702 2697 2693 2692 2695 2689 2679 2659 2630 2592 2546 2518 2513 2471 2438 2412 2382 2356 2340 2342 2333 2344 2351 2362 2370 2374 2383 2412 2432 2443 2442 2443 2435 2427 2416 2408 2384 2364 2312 2284 2252 2237 2235 2217 2210 2167 2142 2123 2109 2095 2086 2056 2023 1992 1970 1894 1850 1804 1685 1697 1709 1702 1701 1701 1683 1673 1673 1675 1668 1653 1650 1646 1645 1634 1635 1622 1606 1593 1590 1565 1550 1530 1522 1481 1474 1448 1421 1403 1374 1355 1340 1322 1306 1293 1264 1250 1242 1225 1194 1181 1171 1161 1145 1126 1114 1102 1093 1086 1080 1074 1064 1052 1039
1681 1680 1708 1723 1734 1747 1771 1788 1812 1815 1832 1849 1878 1898 1916 1938 1939 1958 1969 1987 2005 2029 2055 2070 2066 2072 2077 2100 2094 2123 2132 2168 2186 2223 2234 2261 2290 2317 2319 2341 2352 2359 2386 2418 2427 2450 2521 2504 2501 2501 2503 2503 2510 2508 2505 2517 2526 2503 2489 2477 2476 2468 2454 2433 2419 2416 2416 2416 2418 2420 2425 2431 2437 2443 2449 2456 2464 2468 2477 2485 2487 2491 2501 2511 2518 2525 2532 2541 2550 2562 2574 2577 2594 2610 2630 2657 2663 2682 2682 2681 2675 2668 2662 2655 2645 2616 2598 2570 2533 2495 2480 2459 2420 2402 2387 2357 2340 2322 2303 2295 2288 2313 2332 2332 2337 2366 2388 2411 2421 2432 2435 2431 2422 2415 2404 2401 2368 2355 2307 2270 2244 2239 2213 2186 2156 2144 2116 2094 2090 2065 2032 2020 2003 1978 1935 1875 1836 1799 1763 1737 1738 1725 1713 1694 1695 1686 1687 1684 1673 1661 1662 1658 1676 1669 1653 1651 1644 1598 1587 1566 1547 1525 1507 1484 1455 1418 1411 1392 1369 1351 1338 1326 1304 1292 1265 1252 1235 1208 1187 1181 1173 1161 1142 1123 1109 1096 1088 1083 1077 1070 1059 1048
1686 1699 1712 1722 1739 1755 1785 1798 1813 1831 1856 1864 1900 1908 1932 1953 1951 1981 1984 2018 2036 2066 2080 2095 2104 2103 2104 2114 2129 2128 2160 2176 2187 2218 2239 2268 2284 2301 2314 2319 2346 2349 2376 2417 2445 2468 2526 2526 2517 2520 2517 2520 2522 2517 2523 2529 2528 2520 2503 2495 2491 2487 2474 2464 2447 2435 2432 2435 2437 2438 2443 2447 2451 2455 2466 2481 2489 2496 2500 2504 2512 2521 2526 2530 2534 2538 2549 2559 2569 2579 2590 2607 2616 2617 2632 2648 2656 2661 2652 2650 2644 2631 2620 2610 2599 2581 2560 2537 2499 2472 2458 2425 2401 2395 2370 2341 2318 2296 2274 2267 2275 2284 2280 2303 2335 2343 2356 2375 2386 2389 2396 2408 2410 2409 2402 2397 2372 2359 2330 2304 2251 2246 2217 2183 2160 2134 2111 2088 2076 2048 2033 2020 2012 1982 1954 1938 1905 1848 1789 1768 1766 1762 1727 1730 1712 1710 1714 1710 1691 1682 1687 1693 1702 1703 1700 1688 1651 1639 1609 1591 1572 1541 1521 1510 1472 1424 1419 1408 1371 1356 1345 1331 1325 1310 1294 1266 1250 1237 1213 1189 1182 1170 1151 1128 1111 1100 1091 1084 1077 1069 1062 1054
1692 1698 1718 1725 1749 1760 1786 1805 1818 1839 1864 1896 1903 1935 1948 1979 2002 1998 2031 2072 2094 2107 2116 2117 2120 2117 2119 2133 2147 2153 2170 2186 2207 2220 2253 2275 2286 2290 2306 2314 2331 2352 2379 2419 2459 2471 2501 2513 2523 2533 2535 2542 2538 2538 2534 2530 2530 2526 2520 2511 2505 2498 2489 2479 2474 2462 2464 2451 2451 2452 2454 2460 2466 2475 2485 2494 2505 2514 2520 2526 2535 2543 2554 2561 2565 2570 2577 2582 2590 2603 2606 2617 2621 2622 2620 2638 2642 2638 2629 2619 2611 2598 2587 2578 2562 2547 2525 2501 2476 2447 2427 2414 2404 2388 2364 2315 2288 2249 2256 2249 2250 2258 2272 2279 2298 2315 2345 2352 2351 2366 2375 2383 2391 2391 2393 2379 2368 2361 2348 2328 2283 2259 2233 2202 2174 2142 2097 2067 2061 2044 2035 2023 2009 1995 1970 1943 1929 1867 1831 1793 1790 1775 1764 1766 1752 1742 1731 1725 1729 1708 1705 1714 1708 1706 1698 1697 1689 1654 1633 1611 1592 1557 1532 1506 1500 1476 1426 1417 1376 1362 1347 1341 1329 1323 1317 1300 1268 1247 1230 1206 1186 1172 1152 1129 1111 1101 1095 1087 1079 1071 1063 1056
1697 1706 1730 1744 1753 1776 1796 1798 1817 1849 1890 1901 1931 1956 1980 2001 2030 2030 2083 2090 2099 2118 2127 2144 2138 2152 2146 2157 2167 2180 2180 2204 2227 2252 2266 2286 2293 2298 2306 2321 2333 2357 2388 2410 2448 2463 2468 2504 2518 2534 2549 2551 2551 2547 2552 2553 2542 2553 2549 2541 2531 2524 2510 2508 2504 2504 2491 2482 2465 2466 2473 2479 2487 2495 2502 2512 2522 2533 2543 2547 2551 2561 2573 2584 2594 2594 2593 2602 2611 2615 2619 2615 2613 2603 2602 2601 2606 2607 2585 2576 2575 2560 2555 2544 2528 2508 2493 2474 2451 2423 2403 2400 2393 2365 2317 2286 2246 2229 2209 2216 2240 2236 2250 2263 2280 2290 2305 2329 2334 2336 2336 2353 2358 2371 2365 2368 2367 2357 2353 2334 2321 2280 2249 2223 2175 2130 2090 2063 2048 2038 2023 2012 2004 1985 1953 1945 1897 1880 1840 1828 1801 1795 1789 1782 1769 1760 1751 1751 1736 1736 1730 1730 1725 1708 1700 1693 1685 1670 1658 1640 1600 1582 1539 1518 1504 1481 1449 1424 1384 1362 1354 1345 1338 1334 1326 1310 1283 1255 1225 1208 1194 1176 1148 1127 1113 1102 1090 1079 1071 1066 1059 1053
