ncols 300
nrows 79
xllcorner 0
yllcorner 1250
cellsize 10
531 541 551 564 578 586 595 600 606 607 608 606 604 599 595 588 582 576 571 566 561 556 552 547 542 538 534 531 529 524 519 511 504 498 493 490 487 482 477 469 462 456 451 448 445 439 434 423 412 407 403 412 422 429 437 441 445 448 452 453 454 454 455 454 454 452 450 442 434 427 421 419 417 415 413 403 394 384 375 368 361 354 347 342 338 333 329 322 315 308 301 291 282 273 264 258 252 246 241 241 241 241 241 242 243 244 245 249 254 258 263 269 275 280 286 288 290 291 292 291 291 290 289 291 294 297 301 300 300 298 296 298 300 304 309 313 317 321 325 326 328 328 329 330 332 333 335 338 341 345 349 350 351 349 348 345 343 339 336 334 332 330 329 326 324 321 318 317 316 318 320 321 322 322 322 325 329 337 346 352 358 358 359 362 365 373 382 389 397 403 410 414 419 417 416 419 423 437 452 464 476 488 501 511 522 537 553 567 581 586 591 593 595 594 594 591 589 584 579 575 571 566 562 557 552 551 550 550 551 558 566 574 583 586 590 593 597 607 617 626 635 638 642 645 649 654 660 661 663 662 662 661 661 661 661 659 658 655 652 649 647 645 644 641 639 636 634 634 635 636 638 638 638 637 636 637 638 639 640 641 642 643 644 642 641 639 637 634 632 629 627 625 623 620 618 613 608 604 601 600
527 536 545 556 568 577 586 593 601 603 605 603 602 598 594 587 581 575 570 565 561 556 551 546 542 538 534 531 529 523 518 510 502 496 490 487 485 479 474 465 457 451 446 444 443 437 432 418 405 399 393 404 416 426 437 441 445 449 453 454 456 456 457 456 455 453 452 446 440 434 428 424 421 417 413 405 398 390 383 374 365 356 348 344 340 336 332 327 322 317 313 301 290 279 269 261 254 247 240 240 240 240 241 241 242 243 244 248 252 257 262 267 273 279 285 286 288 289 291 290 290 289 288 290 292 295 298 297 297 296 295 297 299 302 306 310 314 318 322 322 322 319 317 319 321 325 330 334 338 341 345 345 345 342 340 337 335 332 330 328 326 324 323 321 319 317 315 314 314 316 318 319 321 321 322 326 330 338 347 353 359 361 363 367 372 379 387 395 403 411 419 424 430 429 429 432 435 448 461 472 483 494 506 517 528 542 557 569 581 585 589 592 595 593 592 587 582 576 571 568 565 560 555 548 542 541 540 540 540 547 555 563 571 573 576 578 581 594 607 619 632 635 639 642 645 652 660 661 663 662 661 660 659 658 658 656 654 651 649 646 644 642 641 639 637 634 631 630 630 630 630 629 628 626 625 625 625 625 626 628 631 634 637 634 632 630 628 626 625 623 622 619 617 614 611 607 604 602 600 601
523 531 540 550 561 570 579 587 596 599 602 601 600 596 592 586 580 575 570 566 562 557 552 547 542 538 534 531 529 523 518 509 501 494 488 485 482 476 471 462 453 447 441 439 438 433 429 418 408 403 398 407 416 424 433 438 444 448 453 454 456 457 458 457 456 454 453 449 445 440 436 431 426 420 415 410 405 399 393 384 376 366 357 353 349 346 343 335 328 321 314 303 293 283 273 265 257 249 241 241 241 240 240 240 241 241 242 246 251 256 261 266 272 277 283 285 287 288 290 289 289 288 287 289 291 293 295 295 295 294 294 296 298 301 304 307 311 314 318 318 319 318 317 318 320 323 326 328 330 331 332 333 334 335 336 334 333 330 328 325 322 319 317 314 311 308 306 306 307 310 313 315 318 320 323 327 332 340 348 355 362 367 373 379 386 395 404 411 418 423 428 432 436 438 440 444 449 459 469 478 488 499 511 522 534 546 559 568 578 581 584 585 586 584 582 577 573 567 562 558 555 549 543 537 531 531 531 531 532 539 547 554 562 565 568 571 574 587 601 613 626 630 634 636 639 648 657 659 661 660 660 659 658 656 655 652 650 646 643 641 640 640 640 638 636 632 628 626 625 624 623 622 621 619 618 617 617 616 615 618 621 624 627 625 623 621 619 618 617 616 615 613 612 610 609 606 603 601 600 601
518 526 535 544 554 563 572 580 589 592 595 594 594 591 588 583 579 575 571 567 564 559 555 549 544 539 535 531 528 522 517 508 499 492 485 480 475 468 462 453 444 438 433 432 431 426 422 412 403 398 394 400 406 412 419 426 433 439 446 449 452 454 457 456 455 454 453 450 447 444 441 436 432 427 423 418 413 409 405 401 398 394 390 381 372 363 354 343 333 323 314 306 299 291 284 276 269 261 254 249 245 241 238 238 239 239 240 245 250 255 261 265 270 275 280 282 285 287 289 288 288 287 286 287 289 291 294 293 293 292 291 293 296 299 302 305 308 311 314 315 317 317 318 318 318 319 320 321 323 324 325 326 328 329 331 330 330 327 324 320 317 313 309 306 303 300 298 298 298 301 304 308 313 318 324 330 336 343 350 357 364 371 378 385 393 401 410 417 425 430 436 440 444 446 448 452 457 466 476 485 495 506 518 528 539 550 561 568 576 575 575 573 572 570 569 566 564 559 555 551 547 539 532 524 516 517 519 520 522 528 534 541 548 553 558 563 568 579 591 602 613 618 623 633 643 646 649 651 653 653 653 653 653 652 652 649 646 640 635 633 631 631 632 630 629 626 623 620 618 616 615 613 612 611 610 611 612 613 614 613 613 612 612 614 616 617 618 616 615 613 612 611 611 609 608 606 605 603 601 599
511 520 529 540 551 558 566 572 578 581 585 586 587 585 584 580 577 574 572 570 568 564 560 554 548 543 538 533 529 522 515 506 497 489 482 475 469 461 453 443 433 427 421 421 421 417 414 405 397 393 389 396 403 410 417 423 429 434 439 441 444 446 449 450 451 451 452 449 447 444 441 438 435 432 429 423 418 413 408 405 402 398 395 385 376 367 358 351 345 338 331 319 308 298 288 284 280 275 271 262 253 244 236 236 237 238 239 244 249 254 260 264 268 272 276 279 283 286 289 288 288 287 286 287 288 289 291 291 291 290 289 291 294 297 301 303 306 308 310 312 315 317 320 318 316 312 309 309 310 313 317 320 323 325 328 326 324 319 315 311 307 303 300 298 297 296 295 295 296 298 300 304 309 316 323 330 337 344 351 358 365 372 379 386 394 402 411 419 427 434 442 447 453 455 458 462 466 474 482 490 498 510 523 532 541 550 559 566 573 573 573 570 568 564 560 555 551 546 542 537 533 527 521 515 509 509 510 511 512 516 521 526 532 540 548 556 564 575 587 597 608 612 616 624 632 636 641 644 647 645 644 643 642 643 645 643 642 637 633 630 628 627 626 624 622 619 617 615 614 613 612 610 608 606 605 605 606 607 608 606 604 602 601 605 609 612 616 615 614 613 613 612 611 610 610 609 608 606 604 599
509 517 525 535 546 550 555 557 559 563 567 572 577 578 579 577 576 574 573 571 570 566 562 556 550 544 538 533 528 520 513 503 494 486 478 472 466 458 450 439 428 421 414 411 409 405 402 396 390 388 386 392 399 405 411 417 423 428 433 434 436 438 440 442 445 446 448 446 445 442 440 435 431 427 424 421 418 414 411 408 406 402 399 389 380 371 362 355 349 342 336 324 312 300 289 286 284 281 278 267 256 246 236 237 238 238 239 244 249 253 258 262 266 270 274 278 282 285 289 288 288 287 286 286 286 287 288 288 288 288 288 291 294 297 301 303 305 306 307 310 314 318 322 322 322 321 320 318 317 315 314 312 311 309 308 308 308 307 307 304 302 298 294 293 293 294 295 296 298 300 303 307 312 318 325 332 339 345 352 358 364 369 374 382 390 401 412 422 432 441 450 457 464 468 472 476 480 484 489 495 502 515 528 536 544 549 555 559 564 564 565 562 560 555 551 546 541 535 530 526 523 517 511 504 498 498 498 499 500 506 512 518 524 532 541 549 558 569 581 591 601 605 609 616 624 627 631 634 637 637 637 637 638 638 638 637 636 633 631 629 627 625 624 620 617 612 607 606 606 607 609 606 604 600 597 597 598 598 599 598 597 596 595 598 602 605 608 611 615 616 618 617 616 614 613 612 612 609 607 602
504 511 519 528 538 542 546 547 549 554 559 565 571 573 575 575 575 574 574 573 572 568 564 557 550 543 537 530 524 516 508 498 489 481 474 468 462 453 445 433 421 413 406 403 400 396 392 387 383 382 381 386 391 397 403 410 418 423 429 430 432 433 435 436 438 439 440 439 438 436 434 429 424 420 417 417 418 418 418 414 410 406 402 394 387 379 371 362 354 345 336 325 314 303 293 289 286 282 278 267 257 247 237 237 238 238 239 242 246 250 254 258 263 268 273 276 280 283 287 286 286 285 284 284 285 286 287 287 287 287 287 290 294 297 301 302 303 303 303 307 312 317 323 323 323 321 319 317 316 314 313 311 309 306 304 303 303 304 305 304 303 300 297 296 295 295 296 299 302 306 311 315 320 324 329 335 341 348 355 360 366 369 373 380 388 400 412 423 435 446 457 465 474 479 484 488 493 496 499 503 508 518 529 534 539 542 546 548 551 550 550 548 546 541 537 533 530 524 519 513 507 503 499 495 492 490 489 489 489 496 504 511 519 525 531 537 544 555 566 575 585 592 600 610 620 623 627 629 631 631 631 631 631 630 630 628 627 625 624 623 622 620 619 613 608 600 593 594 596 600 605 600 595 587 579 582 586 590 594 594 594 593 593 595 597 599 602 607 612 615 619 618 618 617 617 615 614 612 610 606
500 506 513 521 529 536 544 550 557 563 569 575 581 583 585 584 583 580 578 576 574 569 564 557 550 542 535 527 520 511 502 492 482 474 467 461 456 447 438 425 412 403 395 391 388 385 383 380 377 377 377 382 388 393 399 405 411 414 418 416 414 414 415 418 421 423 425 423 421 419 418 416 415 413 412 411 411 410 410 409 408 405 402 396 390 383 377 366 356 346 336 325 315 305 296 291 287 282 277 267 257 247 238 238 238 238 238 240 243 245 248 251 255 259 263 267 272 276 281 280 279 278 277 279 282 284 286 286 286 285 285 287 290 293 297 298 299 299 299 304 309 315 322 322 322 320 318 316 314 312 310 308 307 305 303 300 298 295 293 294 296 298 300 300 301 301 302 304 307 311 316 320 324 328 332 337 342 348 355 360 365 369 374 381 389 400 412 424 436 449 462 471 481 485 489 493 497 500 504 508 512 519 526 528 531 533 536 539 542 538 535 529 523 520 518 517 516 512 508 503 499 496 494 491 489 487 486 485 484 490 497 504 511 515 519 524 529 542 555 567 579 587 596 606 617 621 625 626 627 622 618 617 617 619 622 621 621 618 615 613 612 612 612 607 603 595 588 590 592 595 599 594 589 581 574 578 583 588 593 593 593 593 593 594 596 598 601 606 611 615 619 619 619 618 618 616 615 612 610 607
493 500 508 516 525 534 544 554 564 570 577 582 588 591 594 596 598 595 592 585 578 571 565 557 550 541 532 522 513 504 495 486 478 469 461 454 447 437 428 416 405 395 386 380 375 372 370 371 372 374 376 381 386 391 397 403 409 410 412 405 399 395 392 393 395 397 400 402 404 404 404 402 401 399 398 395 392 390 389 393 397 399 401 395 390 384 378 367 356 345 335 326 317 308 300 294 289 283 277 267 258 249 240 239 239 238 238 240 243 245 248 250 252 254 256 260 265 270 275 275 275 274 274 275 277 278 280 280 281 281 282 283 285 287 289 291 293 294 296 301 306 311 317 317 318 317 316 311 307 301 295 295 295 296 298 296 294 290 286 288 290 295 300 302 305 306 308 310 312 314 317 320 324 328 332 337 343 349 355 360 366 370 375 383 391 402 413 425 437 451 465 475 485 489 493 497 501 504 508 511 514 518 523 521 520 520 520 522 524 522 521 517 514 512 511 510 510 506 502 497 493 490 487 484 482 481 480 479 478 483 489 494 500 506 512 518 525 538 551 562 574 582 590 600 611 616 621 622 623 616 610 608 606 609 612 611 611 606 602 601 600 601 602 595 588 577 566 570 574 583 592 588 585 578 572 572 573 574 575 576 578 579 581 586 591 596 601 606 611 615 619 619 620 619 619 616 614 612 610 607
486 493 501 510 519 529 540 550 561 568 576 582 588 592 596 598 601 597 594 586 579 571 564 557 550 540 531 520 509 500 491 483 476 467 458 448 439 429 420 410 400 391 382 374 367 364 362 365 368 369 371 371 372 372 372 372 372 373 375 377 380 381 383 384 385 386 387 387 388 389 390 388 386 383 380 377 374 373 372 378 385 389 394 391 388 382 377 366 356 345 335 327 320 312 305 298 291 283 276 267 258 249 241 240 239 238 238 240 243 245 248 249 251 252 254 259 264 268 273 273 273 272 272 272 273 273 274 275 276 277 278 280 282 284 286 287 289 290 292 296 300 305 310 311 312 312 312 308 304 298 293 292 292 293 295 294 294 291 289 291 293 296 300 301 303 304 305 307 310 313 317 319 322 325 329 334 340 347 354 360 366 371 377 384 392 402 413 426 439 453 468 479 490 496 502 505 509 510 512 513 514 516 518 515 512 511 510 511 512 512 512 509 507 505 503 500 498 495 493 490 488 483 479 476 473 472 472 471 471 476 482 488 494 500 506 513 520 532 544 555 566 574 583 595 607 611 616 616 617 612 607 604 601 601 601 599 598 596 594 593 593 594 596 590 584 574 565 569 573 581 589 583 577 567 558 561 565 568 572 572 572 572 573 580 587 593 600 605 610 614 618 619 620 620 620 617 614 611 609 607
484 490 497 504 512 522 533 544 556 564 573 580 588 592 596 598 601 597 594 587 581 572 564 555 547 537 528 517 507 498 490 482 475 466 457 447 437 427 417 407 398 388 379 370 361 358 355 357 360 362 365 366 368 369 370 369 369 369 370 373 376 378 381 382 383 383 383 381 379 377 376 375 375 374 373 368 364 361 359 363 368 372 376 377 379 378 377 365 354 344 334 328 322 315 309 300 292 283 275 266 258 250 242 240 239 238 237 239 242 244 247 247 248 248 249 254 260 266 272 271 270 269 269 269 270 270 271 271 272 272 273 275 278 280 283 284 285 286 287 291 296 301 306 304 303 300 298 295 293 289 286 287 288 290 292 293 295 296 297 298 299 300 301 300 300 298 297 300 303 308 314 316 319 319 320 325 331 340 350 357 365 371 378 386 394 404 415 428 441 456 472 483 495 501 508 512 516 516 517 517 517 514 512 508 504 502 500 499 499 498 497 495 494 493 492 490 488 486 484 481 479 476 473 470 468 467 466 465 465 471 478 483 489 494 499 505 511 522 534 545 556 565 575 587 599 601 604 604 605 602 600 598 596 595 594 592 591 589 587 586 585 585 585 580 576 569 563 566 570 576 583 576 569 559 550 555 560 565 571 570 570 570 571 578 586 593 600 605 610 614 618 619 620 620 620 617 614 611 609 608
474 482 490 499 508 518 528 538 549 558 568 577 586 590 595 598 602 598 595 589 583 573 564 552 541 532 523 515 507 498 490 481 473 462 452 440 429 419 410 402 395 385 376 364 353 348 344 345 346 348 350 351 352 354 357 360 363 365 367 367 367 367 367 366 365 364 364 363 363 363 364 365 366 365 364 360 356 354 352 355 358 361 364 367 371 371 372 361 350 340 330 324 319 313 307 299 291 282 274 266 259 252 245 242 240 238 237 239 242 244 247 247 247 247 247 253 259 265 272 270 268 266 264 265 267 269 271 270 269 268 268 269 271 273 275 278 281 284 287 291 296 300 305 301 298 293 288 285 283 281 279 279 280 282 284 287 291 295 300 301 302 301 301 300 300 299 299 301 304 309 315 318 321 322 323 328 334 342 351 358 366 372 379 388 398 410 423 436 449 463 478 489 500 505 511 514 518 519 521 520 520 516 513 508 504 500 496 493 491 489 488 485 482 480 479 477 475 473 471 469 468 466 464 462 461 461 461 461 462 467 473 478 483 489 495 501 508 519 531 542 553 562 571 582 594 594 594 594 595 594 594 592 590 587 584 582 580 579 578 577 577 577 577 573 570 565 560 563 567 573 579 572 565 555 545 549 553 558 563 564 566 568 571 578 585 591 598 603 608 612 616 618 620 620 620 616 613 611 609 608
470 478 487 497 507 516 526 535 544 553 563 572 581 586 592 596 600 597 594 588 582 572 562 550 538 529 520 513 506 496 486 475 464 453 442 430 418 409 400 393 387 379 371 361 351 346 341 341 342 343 345 347 350 352 354 356 358 359 360 360 360 358 357 354 351 348 346 344 343 343 344 349 354 355 357 352 347 343 340 342 344 345 347 347 348 347 347 341 335 328 322 317 313 307 302 294 287 279 272 266 260 254 249 246 243 240 238 240 242 244 246 246 246 246 246 252 258 264 270 268 266 263 261 263 266 268 271 269 267 265 263 264 266 267 268 272 277 282 287 291 296 300 305 301 297 292 287 284 281 279 277 278 280 283 286 290 294 298 303 303 303 301 299 300 301 302 304 306 309 312 316 319 322 324 326 331 336 344 352 359 367 374 382 392 403 416 429 442 456 470 484 494 504 510 516 519 523 524 525 524 523 520 518 514 511 505 499 493 488 483 479 474 470 466 462 459 457 457 458 459 460 456 453 450 447 448 450 452 455 461 468 474 481 486 491 497 503 515 528 539 550 557 564 573 582 583 584 584 585 586 587 585 583 578 573 570 568 567 566 566 566 565 565 562 560 557 554 555 557 559 562 558 555 549 544 545 547 548 550 555 560 565 571 578 585 591 598 602 607 611 615 617 619 619 619 615 611 608 606 606
465 474 484 495 506 515 524 532 541 548 556 564 572 579 586 591 597 595 593 587 582 572 562 549 537 528 519 511 504 492 481 468 455 443 432 420 409 400 392 385 378 370 363 355 347 343 340 340 341 342 343 345 347 348 350 350 351 351 351 349 347 346 345 345 345 343 341 338 335 333 332 336 340 341 343 339 335 332 330 332 334 336 338 339 340 339 339 333 327 321 316 311 307 302 297 288 280 273 266 262 259 255 252 248 245 242 239 239 240 241 243 242 242 241 241 246 251 255 260 259 259 258 258 259 260 261 263 261 260 258 257 260 263 266 269 273 278 283 289 292 296 299 303 299 295 289 284 282 280 278 277 279 281 284 287 291 295 299 304 303 302 299 297 299 302 306 310 312 315 316 318 320 323 325 328 333 338 345 353 362 371 381 391 401 411 421 432 445 459 473 488 498 508 513 519 522 525 525 526 525 525 523 521 517 514 507 501 493 486 478 471 464 457 452 448 445 443 444 446 446 447 445 443 441 439 439 439 440 441 450 460 469 478 482 486 492 498 509 521 532 543 549 556 562 569 569 570 571 572 574 576 575 574 569 565 562 559 556 554 554 554 554 555 553 551 548 545 546 548 550 553 550 548 545 542 544 546 548 550 555 560 565 571 578 585 591 597 601 605 608 612 615 618 618 618 613 608 605 603 604
463 472 482 493 505 513 522 530 538 544 550 555 561 568 575 583 592 590 589 584 579 570 562 552 542 532 522 513 504 491 479 465 452 439 427 415 404 395 387 379 372 365 359 351 344 339 335 333 331 331 332 334 336 337 339 339 340 340 340 338 337 337 337 338 339 338 338 335 332 330 328 329 330 330 331 330 329 328 327 327 328 328 329 329 330 329 328 323 318 313 308 303 299 294 289 280 271 264 257 256 256 255 254 250 246 243 240 240 240 240 240 240 240 240 240 244 249 253 257 256 255 254 253 253 253 253 253 252 252 251 251 256 261 266 271 275 280 285 290 290 291 291 292 289 286 282 279 278 277 276 275 276 277 278 279 283 288 293 299 299 299 297 296 299 303 308 313 315 317 318 319 322 326 331 337 342 348 354 361 369 377 386 395 406 418 430 443 455 467 479 491 500 509 513 518 521 524 525 526 525 525 523 522 518 515 508 502 494 487 478 469 459 450 445 440 438 437 438 439 439 440 438 437 437 437 437 438 439 440 448 457 465 474 479 484 490 496 507 518 528 538 544 551 558 565 564 563 563 564 565 567 565 564 559 554 551 548 546 544 543 543 544 545 542 539 535 531 533 536 540 544 540 537 531 526 532 538 544 550 555 560 565 571 578 585 591 597 599 601 603 606 609 613 613 613 608 603 601 599 601
457 468 479 492 505 512 520 527 534 540 546 552 558 564 571 577 584 583 582 578 575 568 561 553 545 535 525 514 504 491 479 465 451 438 426 415 404 394 385 377 369 362 355 349 343 337 332 327 322 321 321 325 329 332 335 336 338 337 337 335 334 333 333 334 335 334 333 329 325 322 320 320 320 320 320 320 321 320 319 315 312 308 305 301 298 297 296 299 303 303 304 298 292 286 280 273 266 260 255 255 255 255 255 251 248 245 242 241 240 239 239 239 239 239 240 241 243 244 246 246 247 247 248 248 249 249 250 250 250 250 250 256 262 268 274 276 279 282 285 287 289 290 291 287 283 278 274 274 274 274 275 274 273 271 270 272 275 279 283 286 289 291 293 298 303 309 315 317 319 319 319 324 329 336 343 350 358 365 372 378 385 391 398 410 422 436 451 462 473 482 492 499 506 510 514 517 520 522 524 523 523 521 520 516 512 507 502 494 487 477 468 458 449 443 437 434 432 433 434 435 436 434 433 432 431 431 431 432 434 442 451 459 468 474 481 487 494 503 513 522 532 539 546 554 562 558 555 555 556 559 563 561 559 552 546 542 539 538 537 536 536 536 536 531 527 521 515 516 518 521 524 524 525 525 525 531 538 544 551 555 560 565 571 578 585 590 596 597 599 600 601 601 602 601 600 595 591 590 590 594
451 462 474 487 501 507 513 518 523 530 537 544 551 557 564 570 576 575 574 571 568 562 557 550 544 534 525 514 503 489 475 460 445 433 422 411 401 391 382 373 365 358 352 346 341 335 329 322 316 316 316 321 327 330 333 334 335 335 335 334 333 332 331 331 332 330 328 322 317 314 312 312 313 313 313 311 310 308 306 302 299 296 294 292 291 290 289 290 291 291 291 285 280 275 271 267 264 261 258 257 257 255 254 250 247 244 242 241 240 239 239 238 237 236 235 236 238 239 240 241 243 244 246 247 249 250 251 252 253 254 255 260 265 270 275 274 273 272 271 275 279 284 289 284 280 274 268 269 270 272 274 272 271 269 267 268 269 271 273 277 282 286 291 297 304 310 316 318 320 319 319 324 330 337 345 352 360 367 374 381 388 394 401 412 424 438 453 463 473 480 488 493 499 503 508 511 514 516 518 517 517 516 515 510 506 501 497 492 487 479 472 462 453 444 436 431 427 428 429 429 430 428 427 425 424 424 424 426 429 437 446 455 464 471 478 485 492 500 508 515 522 528 535 542 549 544 540 540 540 545 550 550 550 545 540 536 533 531 529 529 530 531 532 527 523 516 510 510 510 511 512 513 515 516 518 526 535 543 551 555 560 565 570 577 585 590 595 592 590 589 589 592 595 595 595 590 586 585 585 590
442 450 458 468 479 487 496 503 511 518 525 532 540 547 555 562 569 567 565 560 556 552 549 544 540 531 523 512 502 487 472 455 439 426 414 403 392 383 374 365 356 351 346 342 339 333 328 321 315 315 315 320 326 328 331 331 332 332 332 331 331 330 330 329 328 325 322 317 312 309 306 307 309 309 309 308 307 305 303 298 294 290 287 284 282 280 279 281 283 282 282 275 269 265 261 260 259 258 258 257 257 255 254 250 247 244 241 240 239 238 238 239 241 242 243 241 240 239 239 240 241 242 243 245 248 250 253 255 258 260 263 266 269 272 275 273 272 270 269 270 271 272 274 272 271 269 267 268 270 272 274 271 269 266 263 265 268 272 276 279 283 287 291 296 302 308 314 317 320 321 322 327 332 339 347 355 363 371 379 386 393 399 406 416 427 440 454 462 471 476 482 487 492 497 502 505 508 510 512 511 511 510 510 505 500 496 493 489 485 478 472 463 454 445 436 429 422 421 421 421 421 421 422 421 421 421 422 424 426 435 445 453 462 467 472 478 484 491 498 504 510 513 517 519 522 525 529 532 536 539 543 543 543 539 536 532 529 525 521 522 524 527 530 526 522 516 510 509 508 508 509 510 511 512 513 522 532 541 551 555 560 565 570 577 585 589 594 591 588 585 583 583 583 583 583 582 581 581 582 585
431 437 444 451 458 469 481 493 505 510 516 520 525 533 542 552 562 558 554 545 537 535 533 532 532 525 518 509 501 486 471 453 436 422 409 397 386 376 366 357 348 344 340 338 337 332 327 320 314 314 315 320 326 328 330 329 328 328 328 329 330 329 328 325 322 319 316 312 308 306 305 306 308 308 309 308 307 303 300 294 288 283 278 274 270 268 267 270 274 275 276 270 264 260 256 256 257 257 257 256 256 254 253 249 245 242 239 239 239 238 238 239 240 241 242 241 240 239 239 239 239 239 240 243 247 251 255 258 262 265 269 270 272 273 275 273 272 270 268 268 268 268 269 269 270 270 271 270 270 270 270 270 270 269 269 271 274 277 281 283 286 288 290 293 297 301 306 311 316 321 327 332 338 344 350 357 364 372 380 387 394 400 407 417 427 439 452 459 467 472 478 482 487 492 497 499 501 501 502 501 500 499 498 495 492 490 488 484 480 472 465 456 447 439 431 424 418 416 414 413 412 413 414 414 415 416 418 421 424 434 445 454 463 467 471 475 479 484 489 493 498 501 505 510 515 519 524 527 531 534 537 536 536 533 530 525 521 515 510 512 515 520 526 522 519 513 508 506 504 502 501 503 506 509 512 522 532 541 551 555 559 564 569 576 584 588 593 590 587 584 581 580 579 578 578 577 576 577 578 581
421 428 436 443 451 462 474 486 499 504 510 514 518 524 531 537 544 542 540 535 531 528 526 524 522 517 512 505 499 484 469 451 433 420 407 396 385 374 363 352 342 338 334 334 334 328 322 312 303 304 305 314 323 326 329 327 326 326 326 327 328 327 326 323 320 316 313 310 307 305 304 305 307 307 308 306 305 301 298 289 280 273 267 266 265 264 264 266 269 269 270 265 261 258 255 254 254 254 254 253 253 252 251 247 243 240 237 237 238 238 238 239 240 240 241 240 239 238 238 237 237 237 237 242 247 251 256 260 264 267 271 272 273 274 275 273 272 270 268 268 268 268 269 269 270 270 271 269 268 266 265 268 271 274 277 278 280 281 283 285 287 288 290 294 298 301 305 311 318 326 334 339 344 348 352 358 364 370 377 384 391 398 406 415 424 434 445 453 461 467 474 479 484 488 492 492 492 490 488 486 485 484 483 478 473 471 469 468 467 461 455 447 439 432 426 420 415 412 410 409 408 408 409 409 409 410 411 414 418 430 442 451 461 463 466 469 473 478 484 488 493 496 499 505 511 514 518 519 520 518 516 516 517 519 521 518 515 509 504 506 509 514 520 516 512 505 499 498 497 496 496 500 505 510 515 524 534 542 551 554 558 561 565 570 576 580 584 583 582 581 580 579 578 577 576 575 574 573 572 570
419 418 425 432 439 447 457 468 478 489 494 499 503 508 512 516 521 526 524 522 518 515 511 508 505 502 500 499 498 497 482 468 450 432 419 406 395 384 373 362 351 341 336 332 331 330 324 318 310 302 302 302 308 315 318 321 320 320 320 320 320 321 320 319 317 315 313 311 308 306 305 304 305 306 305 305 303 301 297 293 287 282 277 273 270 267 264 261 258 256 255 255 255 256 255 255 254 253 251 250 248 246 244 243 241 239 237 235 235 235 235 235 237 239 240 241 240 239 238 238 237 236 236 236 242 248 253 259 262 265 268 271 272 273 274 275 273 271 269 267 267 267 267 267 266 266 266 266 263 260 257 255 260 266 272 278 280 282 283 285 286 288 289 291 296 301 307 313 318 324 330 336 340 345 348 352 356 360 364 369 376 383 391 400 409 419 428 438 447 456 464 472 477 483 486 490 488 486 480 474 473 472 472 473 469 466 464 463 461 459 453 447 440 434 428 423 418 413 411 410 409 409 408 407 406 405 405 406 410 414 426 439 449 459 461 464 467 470 475 481 485 490 492 494 499 504 505 507 507 508 507 507 506 506 506 506 505 504 502 500 500 501 502 504 501 499 494 490 490 491 492 493 499 505 512 519 527 536 543 551 553 556 558 561 566 572 576 580 579 579 578 578 578 578 577 576 574 573 571 569
412 412 417 423 429 436 447 459 471 483 488 494 499 504 506 508 509 511 509 507 504 502 498 494 490 486 485 484 484 484 471 458 442 426 414 403 393 383 371 360 348 336 332 328 327 327 322 317 309 302 302 302 308 314 316 318 317 316 315 314 313 312 311 310 309 309 307 306 305 304 303 302 302 303 302 302 299 297 294 292 289 287 283 279 274 269 264 260 256 253 251 250 252 255 256 257 255 253 250 248 244 240 237 235 234 234 233 233 232 231 230 230 233 236 238 240 239 239 238 238 237 236 235 235 241 248 254 261 263 265 267 270 271 273 274 275 271 268 264 261 260 259 258 257 256 255 254 253 251 249 247 245 253 261 269 277 280 284 286 289 289 290 290 291 296 302 308 314 319 325 331 337 338 340 340 341 346 351 357 363 369 375 382 389 399 409 419 430 439 449 458 467 472 478 481 484 481 479 472 465 463 462 463 464 461 459 456 454 452 451 447 443 437 431 425 420 415 411 410 410 410 410 408 406 405 404 405 406 409 412 424 436 444 453 454 455 458 461 466 472 476 481 484 487 492 497 499 502 503 505 505 506 505 504 502 501 499 497 495 493 491 490 489 489 487 486 484 482 484 487 489 492 499 506 513 520 528 536 543 551 552 553 555 558 564 570 574 578 577 576 575 575 575 576 575 575 572 570 568 567
407 407 411 416 420 425 436 448 460 473 480 488 494 501 503 505 506 507 503 500 496 493 486 480 473 466 467 468 470 473 461 450 435 420 410 400 391 383 370 358 344 331 326 322 321 321 319 318 316 314 313 312 313 314 314 314 313 312 311 310 309 309 307 306 304 303 302 301 300 300 299 298 297 296 294 293 291 289 287 286 285 284 281 279 274 269 264 260 257 254 252 251 253 256 257 258 255 253 250 248 245 242 239 237 236 235 234 233 231 230 229 228 231 235 237 240 239 239 239 239 238 238 238 238 244 250 255 261 263 265 266 268 269 271 272 273 269 266 262 259 257 256 255 254 251 248 245 243 245 248 249 251 257 264 271 278 282 286 289 293 294 295 295 295 300 305 311 317 322 327 332 337 337 338 337 337 342 348 355 362 368 375 381 388 397 406 416 427 435 444 452 461 464 468 468 469 467 466 462 459 457 456 450 445 442 439 437 435 435 436 435 434 431 429 423 418 413 408 407 407 406 406 404 403 402 402 403 404 407 411 421 432 440 448 449 450 453 456 461 466 470 474 476 478 482 487 492 498 501 504 504 505 503 502 499 497 495 493 491 490 488 487 485 483 482 481 480 479 482 486 489 493 500 507 514 522 529 537 543 550 551 552 554 556 559 563 566 569 569 570 571 572 573 575 574 574 571 569 567 566
402 401 407 413 419 426 434 442 450 459 469 480 489 499 501 503 504 506 502 499 495 491 483 476 467 459 459 459 461 463 452 442 429 416 408 400 393 386 373 360 344 329 323 318 316 314 313 313 312 312 311 310 309 309 308 308 307 307 307 307 307 307 306 305 303 301 299 297 295 294 292 291 289 287 287 287 287 288 287 287 285 284 281 278 274 270 267 264 263 262 261 260 260 260 259 259 258 257 255 253 251 249 246 243 239 236 233 231 230 229 228 228 231 234 236 239 239 239 239 239 239 239 240 241 246 251 256 261 262 263 264 265 265 266 266 267 265 263 260 258 256 254 252 251 250 249 248 247 249 251 253 256 263 270 277 284 287 291 294 298 300 302 304 306 309 313 317 322 326 330 334 339 341 344 346 349 352 355 359 363 370 377 385 393 401 410 418 427 434 441 448 455 457 459 458 458 455 452 448 445 444 443 440 437 434 432 429 427 426 426 425 425 423 421 416 411 407 404 403 403 401 400 399 398 398 398 399 401 405 409 419 429 435 442 444 447 450 454 459 465 468 472 472 473 478 483 488 494 495 497 494 491 490 490 490 490 490 490 489 488 486 485 483 482 481 480 479 479 482 486 490 494 501 509 517 525 531 538 544 550 551 552 553 555 556 558 560 562 564 566 568 570 572 575 574 573 568 563 564 565
398 397 403 410 416 423 428 434 439 445 456 468 480 492 494 497 498 500 493 486 478 471 465 460 454 448 448 449 450 451 442 433 421 410 404 398 393 388 374 360 343 327 321 316 314 313 312 312 311 311 310 310 309 308 306 305 304 303 301 300 299 299 298 298 297 296 295 295 294 293 290 288 284 280 280 280 282 285 285 286 283 280 277 275 272 270 269 268 269 271 270 270 267 264 263 262 262 263 262 262 259 256 252 248 241 235 230 226 226 226 227 228 230 233 235 238 238 239 239 240 240 240 240 241 245 250 254 259 259 260 260 261 260 260 259 259 257 256 254 253 252 251 250 249 250 251 251 252 254 256 258 260 267 275 282 289 292 295 297 300 302 305 307 309 313 318 322 327 332 338 343 349 350 352 353 354 357 361 365 369 375 381 388 395 403 411 419 427 432 438 442 447 449 451 451 452 449 447 442 437 436 436 432 429 426 424 420 416 414 413 413 414 414 414 410 407 404 401 399 397 394 392 392 392 392 393 396 399 403 408 417 426 432 439 442 445 449 453 458 464 467 470 470 470 473 477 483 490 490 490 485 480 478 477 479 481 481 482 482 482 479 476 473 470 471 472 474 477 481 486 491 496 503 511 518 525 532 539 544 550 550 551 552 553 555 557 559 561 562 563 565 567 570 574 572 570 562 555 557 560
397 395 400 405 410 415 422 430 437 444 452 460 468 477 478 480 481 483 479 475 470 466 459 452 445 438 437 437 437 438 431 424 415 406 400 395 390 386 372 358 341 325 320 315 314 313 311 310 309 309 309 309 310 311 308 306 302 298 295 293 291 290 289 289 289 290 289 289 288 287 285 283 279 276 276 276 280 285 285 286 282 278 275 272 271 270 270 270 272 275 275 275 271 268 266 265 266 267 266 266 263 260 255 250 242 235 230 225 225 225 225 226 228 230 232 235 237 239 240 241 241 241 241 241 245 249 253 257 256 256 256 257 257 258 258 258 255 253 250 248 248 248 248 248 249 251 252 254 256 259 262 265 271 278 285 292 295 298 300 303 305 307 309 312 317 322 327 333 337 342 346 350 352 354 356 358 361 365 369 373 378 384 390 397 404 411 418 426 429 433 435 438 439 441 441 441 440 439 437 435 434 434 428 423 421 420 415 411 407 404 402 400 398 397 397 397 396 396 393 391 388 385 385 385 386 387 390 393 397 402 410 418 425 432 435 439 443 448 454 460 463 467 467 468 472 476 481 486 485 485 479 473 471 469 468 468 469 470 472 474 471 469 465 461 463 465 468 471 477 484 490 497 504 511 518 525 531 538 543 549 548 548 548 549 551 553 555 557 557 558 560 562 565 569 569 569 563 557 560 564
394 392 396 400 404 408 414 421 428 436 445 454 463 473 475 477 478 480 474 469 463 457 450 444 436 429 428 428 428 428 420 413 405 397 393 389 386 383 369 356 340 325 320 315 314 313 311 309 306 304 305 306 308 311 308 305 300 296 292 289 287 285 284 283 283 283 282 282 280 278 276 275 274 273 273 274 277 280 279 279 275 271 269 267 267 268 269 271 274 277 278 279 276 274 272 270 269 269 267 266 262 259 254 250 242 235 229 224 224 224 224 225 226 227 228 230 233 237 239 242 241 241 241 241 244 248 251 254 254 254 254 255 256 257 257 258 254 250 246 243 244 246 247 248 250 252 253 255 258 261 264 267 273 280 286 292 295 299 302 306 309 313 316 320 324 328 332 337 340 344 347 350 352 354 356 358 361 365 369 373 379 385 391 397 403 410 416 423 425 427 428 430 430 431 432 433 433 434 433 433 430 427 420 414 413 412 409 406 402 398 395 393 392 392 390 388 386 385 384 384 382 381 380 380 381 382 385 388 393 398 406 415 422 430 433 436 440 444 448 453 457 462 463 465 468 472 473 475 472 469 462 456 455 455 458 462 465 468 470 473 468 463 456 449 451 453 457 461 470 479 488 498 505 512 518 525 529 534 538 542 543 544 545 546 546 547 548 549 552 555 556 558 558 558 560 562 565 568 572 577
387 387 391 395 399 403 407 412 416 421 429 437 445 453 459 466 472 479 470 462 452 443 436 430 424 418 416 415 414 413 407 401 394 387 384 382 380 379 367 355 340 326 321 317 315 314 310 307 302 298 298 299 301 303 301 300 297 294 291 288 285 282 280 279 278 278 277 277 277 277 276 275 274 274 273 272 271 270 269 268 267 266 265 265 266 268 270 272 275 278 279 280 279 278 277 276 275 274 271 269 264 260 255 250 243 236 231 226 225 224 223 223 224 225 226 228 232 236 238 241 241 241 241 241 243 246 248 250 251 252 252 253 254 255 255 256 252 249 245 242 243 245 246 247 249 251 253 255 258 261 264 267 273 280 286 293 297 302 306 310 315 320 325 330 332 335 338 341 343 345 347 350 352 354 356 358 361 364 367 371 374 378 382 386 394 403 411 420 421 422 422 422 422 422 422 422 424 426 428 431 427 424 414 405 405 406 403 400 396 392 389 387 385 384 383 383 383 383 382 382 380 379 379 379 379 380 382 385 389 394 402 411 417 424 427 430 433 436 440 444 448 452 455 459 464 470 470 471 467 464 457 450 449 449 451 454 455 457 457 458 455 452 448 445 448 451 455 460 469 479 488 498 504 510 516 522 526 530 533 537 539 542 543 545 544 543 543 544 546 548 548 548 545 542 545 548 557 567 574 581
385 386 390 395 399 404 408 412 416 421 426 431 436 442 448 454 460 466 456 447 437 428 420 413 406 399 399 399 399 400 395 391 386 381 379 378 376 375 364 354 342 330 325 320 317 315 310 305 299 293 294 295 298 301 299 297 293 289 286 284 282 280 279 279 279 280 280 280 280 280 279 278 276 275 273 272 271 270 269 269 269 269 269 270 270 271 272 274 276 278 279 280 279 279 279 279 279 280 278 276 270 265 259 253 247 241 236 231 228 226 224 223 224 225 226 228 231 235 237 240 240 240 240 241 242 243 244 246 247 249 249 250 249 249 248 248 246 245 243 242 241 240 240 240 244 248 251 255 258 261 264 268 275 282 289 297 301 305 309 313 319 325 331 338 339 341 342 344 345 346 347 349 350 352 353 355 357 360 362 365 368 371 374 378 386 394 404 414 415 416 415 414 415 416 417 419 421 424 427 430 426 423 413 403 401 400 397 395 392 389 387 386 385 385 385 385 384 384 383 382 380 379 378 378 378 378 379 380 384 388 397 407 413 420 421 423 426 429 434 440 443 446 447 448 456 464 464 465 461 458 452 446 446 446 449 453 454 455 455 455 451 447 442 437 442 447 453 459 469 479 488 498 502 507 511 516 519 523 526 530 534 539 541 544 543 542 541 541 539 538 537 537 537 538 543 548 558 568 575 583
386 386 391 396 400 405 411 417 422 427 427 428 428 429 433 438 444 451 444 438 431 424 414 405 395 386 388 391 393 396 391 386 381 376 374 373 372 371 363 355 345 336 330 325 321 317 311 305 299 293 293 294 297 300 297 295 291 287 284 282 280 279 280 281 283 285 285 285 284 284 282 281 279 277 275 274 272 271 270 270 270 271 271 272 273 274 275 276 277 278 279 280 280 280 280 280 280 281 279 277 272 268 262 257 250 244 239 234 231 228 225 223 224 225 226 228 231 234 236 239 239 239 239 239 240 241 242 243 244 246 247 248 246 245 244 243 242 242 241 241 238 236 234 233 239 245 250 256 259 263 266 270 277 285 292 300 304 308 312 316 321 327 332 337 340 343 346 349 348 348 348 348 348 348 348 349 350 351 352 353 360 367 373 380 387 395 402 410 409 409 407 406 407 408 410 413 416 420 424 429 426 423 412 401 399 397 393 389 386 384 384 385 386 388 390 393 394 395 391 387 383 380 380 380 379 379 378 377 379 382 392 402 408 415 416 418 420 423 428 434 436 438 436 435 444 453 452 452 448 445 440 436 437 438 442 446 446 447 446 445 441 437 433 429 435 442 450 458 468 479 489 499 502 505 508 511 513 516 519 522 526 530 533 537 538 540 540 540 538 536 536 537 540 544 549 555 563 571 577 583
389 388 393 398 403 409 415 422 428 435 436 437 437 438 430 423 416 409 407 405 403 401 396 392 387 382 379 376 374 373 373 373 372 372 369 366 364 362 356 350 342 335 330 326 322 319 312 306 299 293 292 291 292 293 291 290 287 285 283 281 279 278 280 282 285 289 289 290 289 288 287 286 285 284 282 280 278 277 275 274 273 272 272 273 273 274 274 275 276 277 277 278 278 279 279 280 280 281 279 278 274 271 265 260 253 247 241 235 231 228 226 224 224 225 226 228 230 233 235 237 237 237 237 238 239 240 240 241 242 243 244 245 244 243 242 242 241 241 240 239 237 235 234 233 239 245 251 257 261 265 269 274 280 287 294 301 305 309 313 317 322 327 332 337 340 343 346 349 347 346 344 342 340 339 338 337 339 342 345 348 356 364 373 382 385 388 391 394 395 397 397 397 396 395 394 394 396 399 403 407 406 406 400 395 393 391 388 385 385 385 388 391 393 396 397 398 398 399 395 392 389 387 386 385 383 382 379 377 377 377 384 391 397 404 407 410 413 417 421 426 427 429 428 427 436 445 442 439 435 432 428 424 425 426 430 434 436 438 439 441 437 434 429 424 430 437 445 453 463 474 484 494 497 501 504 507 509 511 513 515 518 521 524 528 532 536 536 537 532 527 528 530 538 546 553 560 566 573 577 582
399 398 401 405 409 413 418 424 429 435 436 438 439 440 432 424 416 408 406 404 401 399 392 385 378 372 367 363 358 354 356 359 361 364 358 353 346 339 337 335 333 331 329 327 324 322 318 314 309 304 300 296 293 290 288 287 285 283 282 282 281 281 282 284 287 290 290 291 290 290 289 289 288 288 287 286 284 282 280 278 276 274 273 273 274 275 275 275 275 275 275 276 277 279 279 280 280 280 279 278 275 273 268 264 257 251 245 239 234 229 226 224 224 225 226 228 230 233 234 236 236 236 236 237 238 239 240 241 241 242 242 242 242 242 241 241 239 237 235 233 232 232 233 234 241 248 255 262 265 269 272 276 282 289 295 301 305 309 313 317 321 326 331 336 338 340 342 345 342 339 336 334 334 334 334 334 337 340 343 347 353 359 366 373 373 373 371 370 375 380 385 391 392 394 393 393 394 395 396 397 396 395 392 389 387 386 385 385 388 391 395 399 402 405 404 403 402 401 398 395 391 388 387 386 385 384 381 379 378 378 383 389 393 398 400 403 405 408 409 411 412 413 413 413 421 429 429 429 427 425 422 419 420 421 424 427 430 433 435 438 435 432 428 424 428 433 439 445 456 468 479 490 491 492 493 494 495 497 499 502 508 514 518 523 525 527 527 527 522 518 520 522 532 543 551 559 565 572 576 580
407 408 410 412 414 417 421 426 430 435 438 441 443 446 437 428 419 411 408 406 404 402 392 383 373 364 361 358 355 352 354 356 358 360 353 347 340 333 331 330 329 329 327 326 324 322 318 315 310 306 302 298 293 289 287 285 284 283 283 284 285 286 287 288 289 291 291 292 292 292 291 291 290 289 287 286 285 284 282 280 277 275 274 274 275 276 275 274 272 270 270 270 271 273 274 276 277 279 278 278 276 275 270 266 259 253 246 240 235 230 226 223 223 224 225 227 229 232 234 236 235 235 235 235 236 238 239 240 240 241 241 241 241 242 241 241 238 236 234 232 232 233 234 236 243 251 258 265 268 271 274 277 283 289 294 300 304 309 313 317 321 325 328 332 334 337 339 342 339 337 334 331 331 331 330 330 334 339 343 347 348 349 350 352 355 358 360 362 368 374 380 387 389 391 391 392 391 391 390 390 389 388 386 385 383 381 382 383 388 393 398 403 404 406 405 405 404 404 401 398 395 392 390 388 386 385 382 379 378 377 381 386 390 394 397 401 402 404 403 403 402 401 399 397 404 411 412 414 414 414 413 412 412 413 414 416 419 422 425 429 427 425 422 420 422 424 426 429 441 454 466 479 482 486 488 491 492 493 494 495 498 502 506 510 515 520 522 524 523 522 525 528 536 545 551 558 563 568 572 576
413 415 416 418 420 423 426 429 432 435 439 444 447 451 444 438 431 425 420 416 412 408 396 385 373 362 359 357 354 351 352 353 354 356 350 345 339 333 330 328 326 325 323 322 321 320 317 314 310 306 301 297 292 288 286 285 284 283 283 284 286 288 289 290 290 291 292 293 294 295 294 293 291 289 288 287 286 285 283 282 280 279 278 277 277 277 275 273 269 265 264 263 264 265 267 269 272 276 277 278 276 275 271 267 259 252 245 239 234 229 226 224 226 228 229 230 231 233 234 235 234 234 234 234 235 237 238 239 239 240 240 241 241 241 240 240 237 235 233 231 232 233 235 238 245 253 260 267 269 271 274 277 283 289 294 300 304 309 313 317 319 322 325 328 331 335 338 342 337 332 327 322 321 320 319 318 324 330 336 343 341 340 338 337 340 344 348 353 360 367 374 382 384 386 387 388 384 380 375 370 371 372 374 376 375 374 377 381 387 394 399 405 407 409 408 407 406 405 402 400 396 393 390 388 386 384 380 377 375 373 376 379 382 385 387 390 391 392 390 389 387 385 383 381 388 396 400 404 403 403 400 398 399 400 402 404 407 411 414 418 415 413 409 405 408 411 415 419 431 443 454 465 465 466 468 471 477 484 489 494 496 498 501 505 511 517 521 525 525 526 529 533 539 546 551 556 559 562 565 569
419 423 423 424 424 425 427 429 431 434 440 446 450 455 447 440 433 426 422 418 414 411 399 387 375 363 361 359 357 355 353 351 349 348 344 341 337 333 329 326 322 319 317 316 314 313 311 309 306 304 300 296 292 288 286 284 283 282 283 285 287 289 291 293 295 297 298 299 299 299 297 296 293 290 289 289 289 290 289 289 288 287 285 284 283 282 278 274 268 263 261 259 260 261 263 266 269 273 274 276 275 275 270 266 258 250 244 238 233 228 226 225 227 229 230 232 233 234 234 235 234 234 234 234 235 236 237 238 238 239 239 240 239 239 238 238 235 233 232 231 232 234 237 240 247 255 261 268 269 271 273 275 281 287 293 299 303 307 310 314 315 317 319 321 325 329 334 339 334 330 325 320 318 317 315 314 319 325 330 336 336 336 335 335 336 338 340 342 349 357 365 373 374 376 376 376 374 372 369 367 366 365 366 368 371 374 378 382 388 394 399 405 408 411 409 407 406 406 403 400 396 392 389 387 385 384 379 375 373 371 373 376 375 375 372 370 371 372 375 378 378 378 375 373 378 383 388 394 394 395 392 389 389 389 391 393 395 397 400 403 401 400 397 395 400 406 412 418 429 441 452 464 463 463 464 465 473 481 487 493 493 493 495 497 501 506 511 516 520 524 528 533 538 543 547 551 553 556 559 562
415 418 419 421 422 424 425 427 429 431 437 444 448 453 445 438 430 423 421 420 418 416 407 399 390 381 376 371 367 363 357 352 346 341 339 337 334 332 327 323 318 314 311 309 307 305 302 300 297 294 293 293 292 291 291 291 290 290 290 290 290 291 295 299 304 309 309 310 309 308 306 304 301 298 297 296 296 297 295 294 291 289 288 287 286 285 280 276 269 263 261 259 261 263 265 268 270 273 274 275 274 274 269 265 257 250 243 237 232 228 226 225 227 229 230 232 233 234 234 235 234 234 234 234 234 235 236 237 238 239 239 239 237 235 234 233 233 234 234 234 235 236 238 241 248 255 260 266 267 268 269 271 278 285 291 297 298 299 301 303 304 306 307 309 306 304 301 299 304 310 314 318 317 316 314 313 318 323 327 332 333 334 335 336 336 336 336 337 344 352 360 368 368 369 367 366 363 361 358 355 355 355 358 361 367 374 379 384 388 392 397 403 406 409 407 406 404 403 401 399 395 392 389 386 383 381 377 373 371 370 371 373 371 370 366 362 362 363 367 372 372 373 369 366 369 373 378 383 384 385 384 383 384 385 386 388 388 388 388 388 385 383 380 378 386 395 404 413 422 431 439 448 451 455 458 462 467 473 478 483 484 486 488 491 496 501 506 511 516 522 525 529 530 532 535 539 544 549 551 554
405 408 411 414 416 419 421 423 425 428 433 439 443 448 438 429 421 413 417 421 423 426 419 413 406 399 391 384 377 370 361 353 345 337 336 335 334 333 326 320 313 307 303 300 296 293 291 289 287 285 287 289 291 294 295 297 298 300 300 301 301 301 304 307 311 316 316 316 314 313 311 310 308 306 304 303 301 299 297 295 292 290 290 290 291 292 287 283 275 267 265 264 266 269 270 271 271 271 271 272 272 272 267 263 254 246 240 234 230 227 226 225 227 229 230 232 232 233 233 234 233 233 233 233 234 235 235 236 237 238 237 237 233 230 228 227 230 233 235 237 238 239 241 243 249 256 260 265 264 263 264 265 272 280 286 293 292 291 290 290 292 295 297 300 298 296 293 291 295 299 303 308 309 311 312 313 317 322 326 331 333 335 336 338 336 335 333 331 337 343 350 357 359 361 362 363 359 355 350 346 349 352 356 360 368 376 380 385 387 390 395 401 404 407 404 401 397 394 393 392 390 389 387 385 382 380 375 371 369 368 369 370 367 365 361 357 357 358 362 366 365 365 362 359 362 365 369 373 374 376 375 375 377 379 381 384 383 383 382 382 378 374 370 366 375 384 393 403 413 424 434 444 448 452 455 459 461 464 467 470 471 472 474 477 482 488 495 502 510 518 522 526 526 526 529 533 539 545 546 547
398 403 406 409 411 414 415 417 418 420 421 422 422 423 418 414 410 406 413 421 427 433 427 421 414 408 401 394 386 378 366 355 344 334 334 335 335 335 327 319 310 302 299 296 293 291 289 287 285 283 287 291 296 301 304 307 309 312 312 312 312 313 318 324 330 336 333 331 327 323 319 316 313 310 307 304 302 300 299 299 299 300 300 300 300 300 296 292 285 278 275 273 274 275 273 272 269 266 265 265 265 265 261 257 248 240 235 230 228 226 225 225 227 229 230 232 232 233 233 234 233 233 233 233 233 234 235 236 237 238 237 236 232 229 227 226 229 233 236 239 240 242 244 247 251 256 259 263 261 260 260 260 268 276 282 288 286 284 282 281 281 281 280 280 282 285 287 290 292 294 296 299 302 306 309 312 316 321 325 329 330 332 333 335 334 333 332 331 334 338 341 345 349 353 357 361 357 354 349 345 349 353 356 360 368 376 380 384 386 388 392 397 400 404 401 399 395 391 389 388 386 385 383 382 379 377 371 366 361 357 355 353 352 351 350 349 350 352 355 358 358 358 354 351 354 358 361 364 366 368 370 372 373 374 375 377 376 376 375 375 372 369 365 362 371 380 389 399 404 410 416 423 433 443 449 455 448 442 439 436 442 449 456 463 471 479 487 496 504 513 518 523 524 526 529 533 539 545 544 543
391 397 400 403 404 406 405 404 404 404 404 404 403 402 400 399 398 398 407 417 425 434 429 424 418 413 407 401 394 387 375 363 351 340 341 342 343 345 336 328 319 311 307 303 299 296 292 289 286 283 288 294 300 307 310 314 317 321 321 321 321 321 327 334 342 351 348 345 337 330 324 319 315 311 308 306 304 303 304 306 308 311 310 309 306 304 300 296 291 286 283 281 281 281 277 274 268 262 259 257 257 257 252 248 241 234 230 226 225 224 224 225 226 228 229 231 232 233 233 234 233 233 233 233 233 234 235 236 237 238 237 236 232 229 227 226 228 231 234 237 240 244 247 250 253 256 258 261 259 257 257 257 265 273 279 285 280 276 272 269 271 273 275 277 278 279 280 282 285 289 293 297 299 302 305 309 311 314 316 319 321 323 325 327 328 329 330 331 331 332 333 335 337 340 343 347 347 347 345 344 348 352 355 358 366 374 377 381 383 385 387 389 391 393 392 392 390 388 384 381 378 375 374 374 370 367 363 359 354 350 347 344 343 343 344 346 347 348 348 349 346 344 340 336 339 342 349 357 360 363 365 367 367 367 367 367 366 366 366 366 365 364 363 362 366 371 376 381 384 387 391 396 410 425 435 445 438 431 429 427 441 455 466 477 482 488 493 498 502 506 511 516 521 527 530 533 535 537 535 534
384 391 394 397 397 398 389 380 374 369 378 387 393 400 397 394 393 393 404 415 424 433 428 424 419 415 409 404 398 392 382 373 363 354 354 355 355 356 347 339 330 322 316 310 304 298 295 292 289 287 293 300 307 315 317 319 320 322 324 326 327 329 335 341 348 355 354 354 352 350 346 343 338 334 329 324 319 315 314 313 314 315 313 311 308 306 302 299 295 292 289 287 285 284 279 274 267 261 258 255 254 253 248 243 235 227 224 221 222 223 224 225 226 228 229 230 231 232 232 232 232 232 232 232 233 234 234 235 235 236 235 235 232 229 227 226 227 229 231 234 239 245 248 252 254 257 258 259 257 255 255 256 263 271 277 283 280 278 275 273 274 276 276 277 275 273 272 271 277 283 288 293 293 294 295 296 299 303 306 309 309 310 310 311 316 321 325 330 329 328 328 328 329 330 331 332 335 338 340 343 346 350 353 357 362 367 371 376 378 380 379 378 377 376 378 380 381 382 377 372 368 365 366 368 366 365 359 353 348 344 342 340 340 341 341 342 343 344 344 345 342 340 334 329 331 333 341 349 352 356 357 358 359 360 361 362 361 360 359 358 357 357 356 355 356 357 358 359 362 365 369 373 381 389 396 403 409 415 423 431 444 457 467 478 485 492 495 499 500 501 506 511 519 527 527 527 522 518 518 519
370 376 382 388 390 393 382 372 366 360 369 378 385 392 390 388 388 388 399 411 420 430 426 422 417 413 409 405 400 396 388 380 372 365 364 363 361 360 351 342 333 324 318 313 307 302 298 295 291 287 295 304 312 321 322 323 323 323 325 327 329 332 339 346 353 361 361 361 359 358 357 356 355 355 348 342 334 326 325 324 325 326 322 319 314 309 306 303 301 299 296 293 289 286 280 274 266 258 254 251 251 251 246 241 233 225 222 220 221 222 223 225 226 228 228 229 229 229 229 229 229 230 230 231 232 233 233 233 233 233 233 233 232 232 231 231 230 230 232 234 240 246 250 254 255 256 256 257 256 256 256 257 262 268 273 278 278 279 279 280 281 283 284 285 282 279 277 275 276 277 279 281 283 286 288 291 294 297 300 303 300 298 296 294 302 310 318 326 323 321 318 316 317 319 321 324 328 332 336 340 344 348 351 355 357 360 364 368 369 371 369 368 366 365 368 371 372 374 369 365 362 359 360 361 358 356 351 346 342 338 337 337 338 339 339 339 339 339 340 341 338 336 330 325 328 332 338 345 346 348 347 347 349 352 356 360 359 358 356 355 352 350 347 345 348 352 355 358 361 364 368 373 385 397 407 417 424 431 438 446 454 463 471 479 486 493 497 501 500 500 505 510 518 527 526 526 519 512 513 514
358 363 368 374 375 377 368 359 355 351 360 369 376 383 382 382 383 385 394 403 411 420 417 415 412 410 409 408 405 403 396 389 383 377 374 371 368 366 358 351 343 335 329 324 318 312 306 300 294 289 297 305 313 322 322 322 322 322 324 326 329 332 339 347 354 362 363 364 363 363 361 360 358 356 351 347 341 336 334 332 331 331 327 323 317 311 308 305 303 301 298 295 290 286 279 273 265 258 253 249 247 245 240 236 229 223 221 219 220 222 223 225 226 228 228 229 228 227 227 227 228 230 230 231 231 231 230 230 229 228 227 227 228 230 231 232 231 231 232 234 240 247 251 255 255 255 255 256 257 258 259 261 264 268 272 276 278 280 282 284 286 289 290 291 289 288 285 283 280 277 274 272 276 280 283 286 288 291 293 295 293 291 289 287 294 302 309 316 315 314 313 312 313 315 317 319 320 322 324 326 332 338 344 351 352 353 356 359 361 363 362 362 361 361 362 363 364 365 361 357 353 350 348 347 344 342 338 335 332 329 328 328 329 331 331 332 332 332 332 332 330 328 324 320 323 327 334 341 342 344 343 343 346 350 354 359 357 356 353 350 348 346 344 343 351 359 366 373 373 373 374 375 387 399 410 421 428 436 443 450 457 464 470 477 482 487 491 495 496 498 504 510 518 527 526 526 519 512 513 515
344 350 356 363 365 367 358 350 346 342 350 359 365 372 372 372 373 375 383 392 399 406 406 406 406 406 408 410 410 411 402 394 386 379 376 374 371 369 362 356 349 343 337 332 327 322 318 314 309 305 307 309 312 316 316 317 317 318 320 323 326 329 337 345 353 362 364 367 368 369 366 364 360 356 353 351 348 345 341 338 335 332 328 324 319 314 311 308 305 303 298 294 289 285 278 272 264 257 252 247 243 240 235 231 226 222 220 219 220 222 223 225 226 228 228 229 228 227 227 227 228 230 230 230 229 229 229 229 230 232 233 235 235 236 236 236 234 233 234 235 241 248 252 256 255 255 255 256 258 261 263 266 268 270 272 275 278 281 283 286 288 290 291 292 291 290 288 286 281 277 273 270 272 274 276 279 281 284 285 287 286 286 285 285 291 297 303 309 307 306 304 303 305 308 311 314 316 319 322 325 330 335 341 348 347 346 348 350 353 356 357 358 358 358 358 358 358 358 354 351 347 344 343 342 339 336 332 328 324 321 319 318 319 320 322 324 324 324 324 324 323 322 320 318 320 322 327 332 335 338 340 342 343 344 345 346 345 344 342 341 340 340 340 340 349 358 365 373 375 377 379 382 391 400 409 418 425 433 440 448 455 463 468 474 478 482 486 490 493 496 503 510 519 528 527 526 519 512 514 516
325 329 339 349 353 357 348 340 336 332 340 349 355 362 361 360 361 362 371 380 387 395 396 397 398 400 405 410 412 414 405 397 389 381 379 378 376 374 366 358 350 343 339 336 332 328 325 323 320 317 315 314 313 312 312 313 313 313 315 317 319 321 331 341 351 362 366 371 374 377 372 368 362 357 355 353 352 351 347 343 339 335 331 327 322 318 314 310 306 303 297 292 286 280 273 267 260 254 249 245 241 238 234 230 225 221 220 220 221 222 223 225 226 228 228 228 227 226 226 226 227 229 229 229 227 226 226 226 228 231 232 234 235 237 237 237 236 235 236 238 244 250 253 257 256 255 255 256 259 263 266 270 272 274 276 278 280 283 285 287 288 290 291 292 291 291 290 289 284 280 276 272 272 273 273 274 277 280 282 285 284 284 284 285 290 295 300 305 303 301 299 297 300 304 308 312 315 318 321 325 329 334 339 345 342 339 337 336 338 341 345 349 350 351 350 349 348 348 345 342 338 335 333 332 330 328 325 322 319 317 315 314 315 317 318 320 320 321 320 319 317 316 315 314 315 316 318 320 324 328 332 337 337 337 336 335 335 336 336 337 338 339 340 341 349 358 365 373 378 383 387 392 396 400 405 410 416 422 429 437 446 456 462 469 472 475 479 483 488 493 498 503 508 513 514 516 514 513 517 521
308 310 321 333 339 345 338 331 329 328 337 347 353 359 357 355 354 354 359 365 370 376 381 386 391 396 402 408 412 416 410 404 397 391 389 388 386 384 373 363 353 343 339 336 332 329 326 324 321 319 314 309 305 301 302 303 304 306 307 309 310 312 324 337 350 364 369 374 378 382 378 375 369 364 361 358 355 353 350 347 343 340 335 331 326 321 316 311 306 302 295 289 282 275 268 261 253 246 241 237 234 232 229 226 222 219 219 219 220 222 223 225 226 228 228 228 227 226 226 226 226 227 227 227 225 224 224 225 227 230 232 234 235 237 238 239 238 237 239 241 246 252 256 260 260 261 261 262 264 267 269 272 273 275 276 278 280 283 285 287 288 289 290 291 291 292 291 290 285 280 276 272 272 272 272 272 273 275 277 279 280 282 283 284 287 291 294 297 294 291 288 285 287 290 292 294 302 310 317 325 329 334 336 339 336 334 330 327 327 328 330 333 335 337 336 335 334 334 332 331 328 325 323 322 320 318 317 316 314 313 311 310 311 312 315 318 318 318 317 316 314 312 310 308 309 310 312 315 318 321 325 329 329 330 330 331 331 332 332 333 335 338 341 344 351 358 365 372 377 382 386 391 393 395 398 401 406 412 419 426 436 447 454 462 464 466 470 474 479 485 490 495 500 506 509 512 514 516 521 526
298 297 309 322 328 335 327 319 317 316 328 340 348 356 353 350 348 346 348 350 354 358 366 375 383 391 398 405 410 415 413 412 409 407 402 398 393 388 379 370 361 353 347 342 337 332 328 325 322 319 312 305 298 291 292 294 295 297 300 303 305 308 322 336 350 364 369 375 380 385 383 382 379 377 371 366 360 354 351 349 347 345 339 334 328 322 316 311 305 300 291 283 273 264 257 251 245 240 236 233 230 228 225 223 221 219 219 219 220 221 222 224 225 227 227 227 226 225 225 225 225 226 226 226 224 223 223 224 226 229 231 234 235 237 238 240 240 241 243 245 250 255 258 262 263 264 265 267 269 271 272 274 275 276 277 278 279 281 282 284 285 287 288 289 289 290 289 289 284 279 275 271 271 271 271 271 271 272 273 275 277 280 282 284 284 284 284 284 283 282 281 281 285 290 294 299 305 312 318 324 327 331 331 332 329 327 324 321 319 318 319 320 322 325 326 328 328 328 327 326 324 322 319 316 313 311 310 309 308 308 307 307 308 309 311 313 314 315 314 313 311 309 306 304 306 308 310 313 315 318 320 323 324 325 326 327 327 327 327 327 327 327 328 329 339 350 358 367 368 370 373 377 383 390 396 402 408 415 423 431 441 452 459 467 471 475 477 480 481 483 484 486 487 488 494 500 508 516 522 529
298 295 301 308 311 315 311 308 309 311 322 333 340 348 346 344 343 342 343 345 348 351 358 366 373 381 388 395 401 408 410 412 412 413 408 403 397 392 384 376 368 361 355 349 343 338 333 328 323 318 308 299 290 282 285 288 290 292 296 300 304 308 321 335 349 363 369 376 382 388 386 384 381 378 372 367 361 356 353 350 348 346 340 335 329 323 316 310 303 297 289 281 272 263 257 251 245 240 236 232 228 225 223 222 221 221 221 221 221 221 222 223 224 226 226 226 225 225 225 225 225 226 225 225 224 223 223 224 226 229 231 233 235 237 238 240 242 244 246 248 252 256 259 262 263 264 265 267 269 272 273 275 275 276 275 275 273 271 270 270 274 278 280 283 280 278 276 275 274 273 271 270 270 270 270 270 271 272 273 274 277 280 282 284 283 283 283 283 282 282 281 281 287 293 299 305 307 309 311 313 315 318 318 319 320 322 319 316 313 311 313 316 319 322 322 322 321 320 318 317 315 314 311 309 307 305 305 305 304 304 303 303 304 306 308 311 312 313 312 312 310 308 305 302 304 307 309 311 313 315 317 319 318 318 317 317 314 312 310 308 311 315 318 321 329 338 346 354 357 360 365 370 383 396 406 417 422 428 434 441 448 456 462 468 472 476 477 479 478 478 479 480 482 485 492 499 509 519 525 531
303 298 298 298 298 299 298 298 300 302 310 318 324 331 333 336 338 340 342 344 346 349 353 357 362 367 373 380 386 393 400 407 411 416 411 406 400 395 387 380 373 367 361 355 349 344 337 330 323 317 306 296 286 277 280 284 287 291 296 302 306 311 323 336 349 362 369 376 382 389 386 384 381 378 373 368 363 358 355 352 349 347 340 334 327 321 314 308 301 295 287 279 271 263 256 250 245 240 235 231 227 223 222 221 220 220 220 220 220 220 221 222 223 225 225 225 224 224 224 224 224 225 225 225 224 223 223 224 226 229 230 232 233 234 236 238 241 244 247 250 253 257 259 262 262 262 263 265 268 271 273 275 274 274 272 271 266 262 260 259 264 269 271 273 269 265 262 260 262 264 265 266 264 263 263 263 266 269 271 274 276 279 281 284 283 283 283 283 282 282 281 281 286 291 295 300 302 305 307 309 309 310 311 313 316 319 316 314 312 310 311 313 313 314 312 311 309 308 308 308 307 306 303 300 298 297 298 300 300 301 301 301 302 304 306 308 308 309 309 310 307 305 302 299 301 304 306 309 309 310 309 309 307 306 304 303 304 306 307 308 314 321 327 333 337 342 347 352 360 368 376 384 394 404 413 422 427 432 438 444 450 457 462 468 471 475 476 478 477 477 478 480 483 486 493 501 510 520 525 531
300 293 288 283 282 281 284 288 293 298 306 314 320 326 327 329 331 333 337 341 343 346 346 347 349 352 359 367 374 382 392 402 409 417 414 412 408 404 394 385 376 368 363 358 352 347 339 331 323 316 306 296 286 276 279 282 285 289 297 305 312 319 328 337 346 356 364 372 380 388 388 389 388 388 382 376 369 363 359 355 352 349 341 334 326 318 311 304 297 291 284 278 270 263 256 250 244 239 234 230 226 222 221 220 220 220 220 220 219 219 220 221 222 223 223 224 224 224 224 224 223 223 223 224 224 225 226 227 228 230 231 232 233 234 236 238 241 244 246 249 251 254 256 258 259 260 261 263 265 268 269 271 270 269 266 264 259 254 251 249 254 260 263 266 262 258 255 253 255 257 258 259 257 256 256 256 260 264 268 273 276 279 281 284 283 283 282 282 282 282 282 282 284 287 290 293 296 300 303 306 305 305 306 307 309 312 311 310 308 307 307 308 306 305 301 297 295 294 296 298 298 298 295 292 291 291 294 297 298 299 299 299 300 302 304 306 306 306 306 306 304 303 300 298 300 303 304 306 307 308 308 309 307 306 303 301 305 310 314 319 325 332 338 345 349 353 358 363 371 380 388 396 402 409 415 421 427 433 439 445 451 457 461 466 469 472 474 476 476 476 478 480 483 487 494 501 510 519 523 527
294 288 279 270 268 266 274 282 289 297 303 309 313 318 319 320 321 322 323 325 326 328 328 328 330 333 343 353 363 374 386 398 407 417 416 415 412 410 399 388 378 368 362 357 351 346 338 330 321 313 304 295 286 277 281 286 290 294 302 311 319 328 332 337 342 347 355 364 372 381 384 387 389 392 386 381 375 369 364 359 354 350 340 331 321 312 305 299 293 287 281 276 270 265 258 252 245 238 233 228 224 220 219 219 219 219 219 219 218 218 219 220 221 222 222 223 223 223 223 223 222 222 222 223 225 227 228 229 230 231 231 232 233 234 236 238 241 245 246 248 248 249 250 251 253 255 256 258 259 261 261 262 261 260 258 256 253 250 248 247 251 255 257 259 256 254 252 250 252 255 256 257 256 255 255 255 258 262 265 269 273 277 280 283 282 282 282 282 281 281 281 281 283 286 288 291 291 291 291 292 294 297 299 302 304 307 304 302 300 299 298 298 295 292 289 286 286 286 288 290 289 289 288 287 287 288 291 294 295 297 297 297 299 301 303 305 305 305 305 305 303 302 300 299 300 302 300 299 299 300 301 302 302 302 301 300 306 312 318 325 331 338 344 351 355 359 363 368 376 384 391 398 403 408 413 418 422 426 432 438 445 452 456 461 463 466 468 470 472 474 477 480 483 487 493 499 506 513 516 520
287 283 275 267 265 263 270 277 284 291 298 305 309 314 314 315 315 316 316 316 315 315 312 310 312 314 326 338 350 363 378 393 404 415 415 415 412 410 399 388 377 366 357 348 339 331 325 319 313 307 299 292 286 280 287 295 302 310 316 323 329 336 336 337 337 338 348 359 370 381 384 388 391 395 390 386 380 375 368 362 355 349 338 328 317 306 299 292 286 281 277 273 269 265 258 252 245 238 233 228 224 220 219 218 218 219 218 218 218 218 218 219 220 221 221 221 221 222 221 221 220 220 222 224 227 231 233 236 237 239 239 239 237 236 237 239 242 246 247 248 246 245 245 246 248 251 252 254 254 255 254 254 252 251 249 248 246 245 245 245 246 247 248 250 250 250 250 250 252 255 256 258 257 257 257 257 258 260 262 265 269 274 278 282 282 282 282 282 281 281 281 281 282 283 284 285 286 287 287 288 290 292 294 297 298 299 295 292 290 288 288 289 286 283 280 277 278 279 281 283 284 285 284 283 284 285 287 289 290 292 292 293 295 297 299 302 303 304 303 303 301 300 299 298 299 300 298 297 297 298 298 299 299 299 299 299 305 312 319 326 333 341 348 355 359 363 367 371 377 383 388 394 397 400 402 405 406 407 412 418 428 439 445 452 455 458 458 458 457 456 461 467 474 482 486 491 494 498 497 497
284 279 275 269 264 262 261 266 271 277 284 292 301 306 312 312 312 312 312 311 311 310 309 306 303 305 307 319 332 345 358 371 385 396 407 409 412 411 410 399 388 376 364 350 337 325 314 309 304 299 294 290 287 284 282 290 299 308 317 323 329 335 342 344 347 349 351 359 368 376 385 388 392 394 397 392 388 383 378 370 362 353 345 335 325 314 304 297 290 283 276 273 270 267 265 258 251 243 236 231 227 223 219 218 218 218 218 218 218 217 217 217 218 219 220 220 220 220 220 219 219 218 217 220 223 229 235 237 240 241 242 241 241 239 237 238 239 242 246 247 248 245 243 243 243 245 248 249 250 250 251 250 250 249 248 246 245 245 245 245 245 246 247 248 249 249 249 249 250 252 255 256 258 258 259 259 259 259 259 260 261 266 271 275 280 280 280 280 281 281 281 281 281 281 282 282 283 284 286 287 288 288 289 288 287 285 284 283 283 284 285 285 285 282 279 276 273 273 274 276 279 281 283 282 282 282 283 284 286 287 288 289 290 292 294 296 298 298 299 299 300 298 297 295 294 293 293 292 291 291 292 293 295 295 296 297 298 304 311 318 325 333 341 349 357 360 364 367 370 372 374 376 379 381 383 384 386 388 390 396 402 415 428 434 440 440 441 436 432 424 417 424 432 447 462 464 467 465 463 467
277 271 266 262 259 259 260 265 270 275 280 286 292 295 299 298 298 298 299 301 303 302 302 298 295 296 298 310 322 333 344 352 360 368 377 386 395 400 405 393 382 370 358 343 329 316 304 299 295 290 286 283 280 278 277 287 297 307 317 323 330 336 343 346 349 352 355 363 372 380 389 391 394 396 398 393 389 384 380 369 359 348 338 329 320 311 303 295 287 279 272 269 267 265 263 256 249 241 233 229 225 221 218 217 217 217 217 217 217 217 217 217 218 218 219 219 219 219 219 218 218 217 217 220 224 230 236 239 242 242 243 242 241 239 237 238 239 242 246 246 247 244 241 240 240 241 243 243 244 243 243 242 242 243 244 244 245 244 244 244 244 245 246 249 252 256 261 263 265 263 262 261 260 261 262 262 263 262 262 262 262 265 268 271 274 275 276 277 278 279 280 280 281 281 281 281 281 282 284 285 287 287 288 286 284 283 282 280 279 278 278 278 278 276 275 272 269 269 270 273 276 277 278 278 278 278 278 278 278 280 282 285 288 289 290 291 292 293 295 296 298 296 295 292 290 289 288 288 288 289 290 291 293 294 295 295 296 302 309 316 324 331 339 346 353 357 361 362 364 359 355 354 353 359 366 371 376 380 384 389 394 401 409 414 420 423 427 425 423 417 411 419 427 441 455 457 460 458 456 459
273 266 260 255 251 251 251 257 264 270 277 282 288 290 293 291 289 288 287 287 288 288 288 284 281 282 283 293 304 315 327 339 351 360 370 376 382 384 387 379 371 361 351 338 325 313 301 293 286 280 275 274 273 273 273 284 295 306 317 324 331 337 343 346 349 352 355 365 375 385 396 396 396 396 397 393 389 385 381 369 358 346 335 327 319 311 303 294 285 275 266 263 260 258 256 250 244 237 230 226 223 220 217 216 216 216 217 217 217 217 217 217 218 218 219 219 219 219 219 219 219 218 218 221 225 231 238 240 243 243 243 242 241 239 237 238 239 242 245 245 245 242 239 237 236 236 236 237 238 239 241 241 242 242 242 243 245 247 249 249 249 249 249 251 254 259 264 268 272 273 274 273 273 270 268 267 266 266 266 265 265 264 264 264 265 266 268 270 272 274 277 279 281 280 279 278 278 279 281 282 284 284 285 283 282 281 281 279 277 274 271 271 272 271 271 269 267 267 267 269 271 271 271 272 274 275 276 275 275 277 280 283 287 287 287 287 287 289 291 293 295 293 292 289 287 287 288 288 288 289 290 291 293 294 295 296 297 302 308 313 319 317 315 313 312 314 316 320 325 333 342 349 356 360 365 370 376 381 386 390 394 395 397 400 404 408 413 412 412 407 403 411 420 434 449 452 455 454 454 454
266 258 251 247 244 244 245 250 256 261 267 272 278 281 285 284 284 283 282 281 280 277 275 271 267 267 268 276 284 295 306 322 338 349 361 361 361 361 361 358 356 351 346 334 322 311 300 291 282 275 268 267 267 268 270 282 294 305 317 323 330 336 343 345 348 350 353 356 360 363 367 374 381 387 393 389 386 382 379 369 360 350 340 331 322 313 305 295 285 275 266 262 259 257 255 249 243 236 230 226 222 219 216 216 216 216 216 216 217 217 217 217 218 218 218 218 219 219 220 221 223 224 226 229 232 236 241 242 244 243 243 242 241 239 238 238 239 240 242 242 242 240 238 236 234 233 232 233 235 238 242 243 244 241 238 240 243 254 265 269 273 267 262 261 261 266 272 276 281 283 285 284 284 279 274 270 267 266 266 265 264 262 260 259 259 261 263 265 267 271 275 278 281 279 278 277 276 276 277 278 279 279 279 279 279 278 278 276 274 271 268 267 266 265 265 264 263 264 265 266 268 269 270 271 272 273 274 274 274 275 276 279 282 283 284 284 284 285 286 288 290 289 288 285 283 285 288 288 289 289 289 289 289 293 297 300 304 307 310 312 315 315 315 314 314 316 319 324 329 342 355 364 373 372 372 376 380 389 399 403 407 404 401 401 401 403 405 403 401 397 393 401 410 423 437 442 447 448 450 447
262 253 245 243 242 243 245 250 255 259 264 267 271 273 276 276 277 276 276 274 273 270 268 264 260 259 259 264 269 279 290 308 326 338 351 351 351 350 350 347 344 340 336 327 318 308 299 288 278 269 261 259 258 259 261 274 288 300 313 317 322 327 333 335 338 339 340 335 330 326 323 339 355 369 384 381 379 377 375 367 359 351 343 334 325 316 307 297 287 276 266 263 260 257 255 248 242 235 229 225 222 219 216 215 215 215 215 215 216 216 217 217 217 217 218 219 220 221 222 225 229 234 240 242 244 244 245 244 244 243 243 242 241 240 239 238 238 239 240 239 239 238 237 236 235 234 233 234 236 240 244 246 248 247 246 248 250 258 267 274 281 283 286 287 288 289 290 290 291 291 292 290 288 283 278 273 269 267 266 264 262 259 257 255 254 256 259 261 264 264 265 265 266 268 271 272 273 272 272 271 271 271 272 273 275 274 274 272 270 267 264 262 261 261 261 261 262 262 263 263 263 264 266 267 268 269 270 270 271 272 274 276 279 280 281 281 282 282 282 282 283 282 282 281 281 285 289 290 291 289 287 284 282 288 295 302 309 308 308 307 307 311 316 320 325 330 335 341 347 357 367 374 382 383 385 389 393 401 409 411 414 410 406 404 403 404 405 402 399 393 388 394 400 411 422 428 434 438 443 436
263 255 247 244 242 241 241 242 244 247 250 254 258 261 265 267 270 268 267 262 257 253 250 248 246 247 248 253 259 269 279 297 315 326 338 334 331 330 329 332 335 334 334 325 317 308 299 287 276 266 257 254 252 252 253 266 279 290 302 300 298 297 296 304 312 319 326 324 322 320 318 331 344 357 370 370 370 370 370 363 356 349 342 334 326 318 310 300 290 280 270 266 262 258 255 248 242 235 228 224 221 218 215 214 214 214 214 214 215 215 216 216 217 217 217 219 221 222 224 227 231 235 240 241 242 242 242 242 243 243 243 242 242 241 240 239 238 237 236 236 237 237 238 238 238 237 236 237 239 242 245 251 257 265 273 278 283 284 285 287 289 293 297 298 300 300 300 299 298 296 295 292 290 285 280 275 271 268 266 263 260 257 255 253 252 254 256 258 260 261 262 263 264 265 267 268 269 269 269 268 268 268 268 269 270 269 268 266 264 262 260 259 259 259 260 261 262 262 263 263 263 263 263 263 264 264 265 265 266 268 270 273 276 278 280 280 280 279 279 278 278 278 278 278 279 283 288 290 292 289 287 283 280 288 296 304 312 313 315 316 318 323 328 332 337 343 349 355 361 367 374 377 381 378 376 379 383 394 406 410 415 411 407 404 402 400 399 395 392 387 383 387 392 400 409 414 419 423 427 422
266 256 247 240 234 233 232 235 239 242 246 249 253 255 257 257 258 256 254 248 242 237 233 231 230 231 232 237 242 252 262 280 298 308 318 314 311 310 309 312 316 317 318 313 308 300 293 280 268 258 248 248 248 249 250 257 265 272 280 282 284 285 287 293 300 306 312 314 316 318 321 330 339 348 358 357 357 357 358 354 350 346 342 335 328 321 315 305 296 287 278 272 266 260 254 246 239 231 224 221 219 216 214 214 214 214 214 216 218 220 222 222 223 223 224 225 226 227 228 231 234 237 240 240 240 238 237 237 238 240 242 242 242 241 241 240 239 237 235 236 237 239 241 241 242 242 242 243 245 248 251 256 261 267 274 279 285 288 291 293 296 298 301 302 304 304 305 303 302 299 296 293 290 286 282 278 274 270 266 262 259 256 254 252 251 252 253 254 255 257 260 261 263 261 259 258 258 260 263 265 267 266 266 266 267 266 265 264 263 262 261 261 261 261 262 262 263 263 264 264 265 264 263 262 262 263 264 264 265 266 268 271 274 276 278 278 279 278 277 276 275 275 275 275 276 278 281 283 285 284 284 283 282 289 296 303 311 313 315 317 320 325 330 335 340 344 349 354 359 364 369 372 375 372 370 373 376 386 397 400 403 397 392 391 390 390 391 389 388 385 382 385 388 393 399 403 407 410 413 409
270 259 248 237 227 224 222 226 230 232 235 236 238 239 241 242 243 241 239 234 230 227 225 226 227 228 229 230 231 239 247 265 284 294 304 299 294 292 290 294 298 300 303 301 300 294 289 274 260 249 239 240 241 243 245 248 252 256 261 273 285 295 306 311 317 322 327 327 328 329 330 334 339 344 349 347 345 343 341 341 341 340 340 334 329 323 317 307 297 287 277 269 262 255 248 241 234 227 220 218 217 215 214 214 214 214 214 217 221 225 229 230 231 231 232 232 232 232 232 233 235 237 240 239 238 235 233 234 236 238 241 242 243 242 242 241 241 240 240 240 241 242 244 245 246 247 249 251 253 256 260 264 268 272 276 280 284 287 291 294 297 299 302 303 304 304 305 304 303 299 296 293 290 286 283 279 275 270 265 261 257 255 253 251 250 251 252 253 254 256 259 260 262 260 258 256 255 258 261 263 265 264 264 264 265 264 263 262 262 261 261 261 262 262 262 262 263 264 265 265 265 264 263 262 262 263 265 265 266 266 267 268 270 271 272 272 273 273 273 272 271 271 272 273 274 275 277 277 277 279 281 283 286 290 295 299 304 308 312 315 319 324 329 333 338 343 348 352 357 359 361 362 364 364 365 367 370 374 378 381 384 383 383 381 380 378 376 375 374 373 372 374 376 379 382 387 392 396 401 397
272 261 250 239 228 223 218 218 218 219 220 221 223 224 226 227 229 228 228 224 221 220 219 221 224 225 226 226 226 232 239 254 270 278 286 282 278 275 272 273 274 275 277 278 279 276 274 262 251 242 233 233 233 235 237 244 252 260 268 283 298 311 325 328 332 335 338 336 334 332 331 329 328 327 326 327 329 329 330 331 333 334 335 331 327 322 318 307 297 287 277 268 259 250 241 235 230 224 219 217 216 215 214 216 218 219 221 224 227 230 233 233 233 232 232 232 233 233 233 234 236 237 239 238 237 235 233 234 235 238 241 241 242 241 241 241 242 242 243 244 245 246 247 248 250 251 253 255 258 261 265 268 271 274 277 280 284 287 291 294 297 299 302 302 303 303 303 301 300 297 295 292 289 286 283 278 274 267 261 257 253 252 251 250 250 251 252 253 255 257 259 260 262 259 257 255 254 255 257 258 260 260 261 262 263 262 262 262 262 261 261 261 262 262 262 262 263 263 264 264 265 264 264 263 262 263 265 266 267 267 267 268 269 269 270 270 271 271 271 271 271 271 272 273 274 276 278 278 279 281 283 285 287 289 291 293 296 301 307 312 317 320 323 327 331 336 342 346 350 350 351 352 353 355 357 358 359 359 360 361 363 365 368 368 369 368 368 367 366 365 364 365 366 367 369 373 377 382 387 386
271 260 250 239 228 222 216 215 214 214 214 215 217 217 218 218 218 218 218 217 217 217 218 220 222 223 224 222 221 225 229 241 253 260 268 267 266 265 264 263 262 262 262 263 264 262 260 251 243 236 229 228 228 230 233 243 254 265 277 292 308 320 333 336 340 343 346 345 345 344 343 336 329 323 317 316 316 316 316 319 323 326 329 326 323 320 317 307 297 286 276 267 259 250 241 235 229 223 218 216 215 214 213 217 222 226 230 231 233 234 235 234 234 233 232 232 233 233 234 235 236 237 239 239 239 238 237 237 238 240 242 241 240 238 237 238 239 241 243 244 246 247 249 250 252 253 255 257 260 263 267 269 272 274 277 280 283 287 291 294 297 299 302 302 303 302 301 299 298 295 293 290 288 285 282 277 273 265 258 254 250 250 250 250 250 250 251 252 253 255 258 259 260 258 256 254 253 253 254 254 255 255 256 257 258 258 259 259 260 260 260 260 261 261 262 262 263 264 265 265 266 265 265 264 263 264 266 268 270 270 270 269 269 270 271 271 272 272 272 271 271 271 272 273 274 276 279 279 280 281 283 284 285 285 286 286 286 291 297 302 308 312 316 319 323 328 334 338 342 341 341 342 343 345 348 348 349 347 345 346 347 350 354 354 355 354 353 354 355 356 357 357 357 357 358 363 368 374 380 380
268 258 249 239 229 223 217 214 212 210 209 208 208 207 207 206 206 207 208 210 212 214 216 218 220 220 221 219 218 220 222 228 235 240 245 246 248 250 252 254 257 257 257 254 251 248 245 240 236 232 229 229 229 232 235 245 255 266 277 293 310 323 336 339 343 345 348 349 351 350 350 337 324 313 303 304 306 307 308 311 315 318 322 321 320 318 316 305 295 284 274 265 257 248 240 234 228 222 216 215 215 214 213 218 224 229 235 235 236 236 236 235 234 233 232 232 233 233 234 235 236 237 238 238 239 239 240 240 241 241 242 241 240 238 236 237 238 240 242 244 246 247 249 250 252 253 255 257 260 263 267 269 271 272 274 277 280 285 290 293 296 298 300 300 300 298 297 295 293 291 289 286 284 282 281 277 273 266 259 255 251 251 251 251 251 251 252 252 253 255 257 258 259 257 255 253 251 251 251 251 252 254 257 257 258 258 258 258 258 258 258 259 260 261 262 262 263 263 264 264 265 264 264 263 262 264 267 269 271 271 271 270 270 270 271 271 271 271 272 272 272 272 273 273 274 276 279 280 281 281 281 281 282 282 283 284 285 289 293 296 300 304 308 312 317 322 327 331 336 338 340 340 341 340 340 338 337 334 332 332 333 336 339 341 343 344 345 347 349 351 353 352 351 349 347 352 357 364 371 373
264 255 247 238 230 224 219 215 212 209 207 205 204 203 202 201 201 202 203 205 208 210 213 215 217 218 219 218 217 216 216 216 216 218 220 224 229 232 236 238 241 241 242 238 235 232 230 229 229 229 229 230 232 235 239 247 256 266 277 293 309 322 336 339 343 346 349 350 352 351 351 337 324 312 301 303 305 306 308 307 306 306 306 308 311 312 313 302 292 281 270 262 255 247 239 233 228 222 216 215 215 214 214 220 226 232 238 237 237 237 237 235 234 232 231 231 232 233 234 235 236 236 237 238 240 241 242 242 242 242 242 240 239 237 236 237 238 240 242 243 244 245 246 248 250 251 253 254 256 258 260 262 264 266 268 271 274 278 282 284 287 288 289 289 290 289 288 287 286 283 281 279 278 276 275 272 269 264 259 256 253 252 252 252 252 252 252 252 252 252 253 253 253 252 251 250 249 248 248 249 251 254 258 259 261 259 258 257 257 257 258 258 259 260 261 261 262 263 264 264 264 262 261 261 261 263 266 268 271 271 272 272 272 272 272 271 271 271 271 272 273 273 274 274 275 276 278 279 281 280 280 279 279 280 281 282 283 286 289 292 295 297 300 303 306 312 319 324 330 332 335 336 338 337 336 334 333 329 326 325 324 325 327 328 329 330 331 335 339 345 351 349 348 344 341 345 349 354 360 363
252 246 240 234 228 223 218 214 210 208 206 204 203 202 201 200 200 200 201 203 205 207 209 211 213 214 215 214 214 212 211 209 208 209 211 217 223 227 231 231 232 232 232 229 226 224 223 224 225 226 228 231 234 237 241 247 253 261 270 285 300 312 324 330 337 342 348 350 352 352 352 340 328 318 308 307 307 306 306 301 297 293 290 293 297 300 303 294 285 275 266 258 250 242 234 229 225 220 216 215 215 214 214 220 226 232 238 238 238 237 237 235 233 231 229 230 231 232 234 234 235 235 236 238 240 241 243 243 243 242 242 240 239 237 235 236 237 239 241 242 243 244 245 246 247 249 251 251 251 250 250 251 253 256 259 263 268 273 279 281 283 282 282 281 280 278 277 276 275 274 273 272 271 269 268 265 263 260 257 255 253 252 252 252 252 251 251 251 251 250 250 249 249 248 248 247 247 247 247 248 250 254 258 259 260 258 257 256 256 256 257 258 259 260 261 261 262 263 264 264 264 262 261 260 260 262 265 267 270 271 273 274 275 274 274 273 272 272 272 273 274 274 274 274 275 276 278 280 282 281 280 278 277 278 279 280 281 282 284 286 288 292 296 300 304 308 313 316 320 321 323 323 324 323 323 323 323 322 322 322 322 322 323 324 325 326 327 330 334 338 343 341 340 337 334 339 344 350 356 358
239 235 231 228 225 221 217 212 207 204 202 201 200 199 199 199 199 199 200 201 202 203 205 207 209 210 211 211 212 211 211 209 207 208 210 215 221 222 224 220 216 215 214 216 218 219 220 220 221 222 224 228 233 235 238 237 237 240 244 259 274 286 298 301 305 310 316 327 339 345 352 341 330 320 310 309 309 307 305 299 293 287 282 285 288 289 291 283 275 267 260 251 242 233 225 222 220 218 216 215 215 214 214 220 226 231 237 237 237 237 237 234 232 229 227 228 230 231 233 233 233 233 233 235 237 239 242 242 242 241 241 239 238 236 235 235 236 237 238 238 238 237 237 239 242 244 247 247 247 245 244 245 246 248 250 253 256 260 265 267 269 269 269 269 269 268 268 267 266 264 262 261 261 261 262 260 259 256 254 252 251 251 252 252 252 251 251 250 250 249 249 248 248 247 247 246 246 246 247 248 249 253 258 258 258 257 256 256 256 256 257 258 259 259 260 260 261 262 263 263 263 262 261 260 260 262 264 266 269 271 273 275 277 276 276 274 273 273 273 273 274 274 274 274 274 275 277 278 280 279 279 278 277 277 278 279 280 280 281 283 285 289 294 298 303 304 306 308 311 313 315 316 318 318 318 318 319 319 320 319 318 314 311 310 310 312 314 319 324 330 336 335 335 332 330 335 341 347 354 354
234 231 229 226 224 219 215 209 204 201 199 198 197 197 197 197 198 199 200 200 201 202 203 204 206 207 209 210 211 210 210 208 206 206 207 211 215 215 216 212 208 207 206 208 210 212 214 215 217 219 222 226 231 232 234 229 225 224 224 236 249 260 272 279 286 293 301 313 325 333 341 330 320 312 304 305 306 305 304 296 289 282 276 279 283 284 286 277 269 260 251 244 237 230 224 222 220 218 217 216 216 215 215 220 225 229 234 234 235 235 235 232 230 227 225 226 228 230 233 232 232 231 231 232 234 236 238 239 240 240 240 239 238 236 235 234 233 232 232 231 230 229 229 231 233 236 240 240 240 237 235 236 237 240 243 244 245 245 245 247 249 252 256 257 259 260 261 260 259 256 254 253 253 255 257 256 256 253 250 249 248 249 251 251 251 250 249 248 248 248 248 248 249 250 251 251 251 249 248 248 249 253 257 257 257 256 255 255 255 256 257 258 259 259 260 260 261 261 262 262 263 262 262 261 261 263 265 267 269 270 272 273 274 273 273 272 272 272 273 273 273 273 273 273 273 274 276 277 279 278 278 277 277 277 278 278 279 279 280 281 283 288 294 298 302 304 306 307 309 309 310 311 312 313 314 314 315 315 315 314 314 313 312 311 311 311 311 315 319 324 330 330 330 329 328 331 334 338 342 342
217 215 213 213 213 211 209 205 202 200 198 197 196 196 196 197 198 198 199 199 200 201 203 204 206 207 208 208 208 207 206 203 200 200 200 203 206 206 207 204 202 201 200 201 203 205 207 210 213 216 220 223 227 228 229 225 222 221 221 228 235 243 252 262 273 281 290 293 296 299 303 301 299 296 293 294 295 294 294 285 277 270 264 268 272 274 277 268 260 251 243 237 232 227 223 221 220 218 217 216 216 215 215 219 223 227 231 231 231 231 232 230 228 225 223 224 225 226 228 228 228 227 226 227 229 231 233 234 236 237 239 238 237 236 235 233 231 229 227 227 227 227 228 229 230 231 233 233 233 231 230 230 231 232 233 234 236 237 239 239 240 241 242 243 244 245 247 247 248 247 246 246 247 248 250 250 250 248 246 246 246 248 250 250 250 248 246 245 245 246 248 249 250 251 252 252 253 251 250 249 248 251 254 254 255 255 255 255 255 256 257 258 260 260 261 261 261 261 262 262 263 263 263 263 263 265 267 269 271 271 271 270 270 270 271 271 271 271 271 271 271 271 272 272 273 274 275 276 277 277 277 276 276 277 278 278 279 279 279 280 281 284 288 292 296 299 302 304 306 305 305 304 304 304 304 304 305 305 306 306 307 307 308 308 308 308 309 310 311 312 313 316 319 321 324 325 327 328 330 332
214 210 207 205 204 203 202 201 200 199 198 197 196 196 196 197 198 198 199 199 199 201 203 205 208 207 207 204 202 200 198 197 197 197 198 199 201 201 201 200 199 198 197 198 199 200 202 205 208 211 214 218 222 223 225 222 220 219 218 219 221 225 229 238 247 256 265 273 281 286 291 288 286 283 281 279 278 276 274 268 262 256 251 254 258 260 263 257 252 245 239 234 230 226 222 220 219 218 217 217 217 217 217 219 222 224 227 227 227 227 227 225 223 221 220 219 219 219 219 220 221 222 224 226 228 229 231 232 234 235 237 236 236 235 234 232 230 228 226 226 226 226 227 227 227 226 226 226 226 227 228 229 230 231 233 233 234 234 234 234 235 234 234 234 235 235 236 237 238 239 240 241 242 242 243 243 243 242 242 243 244 246 249 251 254 256 258 257 257 254 252 251 250 251 252 252 253 251 250 249 249 251 253 253 254 254 255 255 256 257 258 259 261 261 262 261 261 261 262 262 263 263 263 263 264 266 268 270 273 272 271 269 268 268 269 269 270 270 270 270 270 270 271 272 273 273 274 275 276 276 276 276 276 277 278 278 279 279 279 279 279 280 282 283 285 288 292 294 297 298 300 300 301 300 299 298 298 298 298 299 300 302 304 305 306 306 307 308 309 310 312 314 317 320 323 324 325 325 326 328
219 215 211 207 204 202 200 198 197 196 196 195 195 195 196 196 197 197 198 198 199 201 203 206 210 209 209 205 202 200 199 198 198 198 198 198 199 199 200 200 200 200 200 199 198 198 199 200 202 205 208 211 215 217 219 218 218 217 217 218 220 221 222 223 225 228 232 239 247 253 260 261 263 263 264 262 260 258 256 254 253 250 248 245 243 241 239 236 233 229 226 223 221 218 216 216 216 216 216 216 217 217 217 219 221 222 224 223 223 222 222 220 219 218 217 217 217 217 217 218 219 220 221 223 225 227 229 231 233 234 236 235 235 234 233 232 231 229 227 227 227 227 227 227 228 229 230 230 230 230 230 231 233 235 237 236 235 233 231 230 230 230 230 230 231 232 233 234 236 237 239 240 241 241 241 241 242 242 242 243 244 245 247 249 252 254 257 257 257 255 253 251 250 251 252 252 252 251 250 250 251 252 253 254 256 256 257 256 256 256 257 259 261 261 261 261 261 261 262 262 263 263 264 265 266 268 270 272 274 272 271 269 268 268 268 268 269 269 269 269 270 270 271 272 273 273 274 275 276 276 276 276 276 277 278 278 279 278 278 278 278 279 280 281 282 284 286 288 290 291 293 293 294 291 289 288 288 289 290 290 291 291 291 293 295 297 300 303 306 308 311 313 316 318 321 322 323 324 326 326
221 217 213 208 204 201 199 197 195 194 194 194 195 195 196 197 198 198 199 199 199 201 203 206 209 208 208 205 203 201 199 198 198 198 198 198 199 200 202 204 206 206 206 203 200 199 198 199 200 202 204 206 209 211 213 213 213 214 215 216 218 219 221 222 223 224 226 229 232 235 239 242 246 248 251 250 249 248 247 247 248 247 246 239 233 227 221 220 219 217 216 215 215 214 214 214 215 215 215 215 216 216 217 218 220 221 223 221 220 219 218 217 216 215 214 214 215 215 216 215 214 213 212 214 217 220 224 226 229 231 234 234 234 233 233 232 231 230 229 228 228 227 227 228 229 230 232 231 231 230 229 230 232 234 237 236 235 232 230 230 230 231 233 233 234 233 233 234 235 237 239 240 241 241 241 241 241 241 242 241 241 240 240 242 244 248 253 254 256 254 253 252 251 251 252 252 252 251 250 250 251 252 253 255 257 257 257 256 255 256 258 259 260 260 260 259 259 260 261 262 263 264 265 266 268 269 271 272 274 272 271 269 268 268 268 268 268 268 269 269 269 270 271 272 273 273 274 275 276 276 276 276 276 277 278 278 279 278 278 278 278 279 280 281 282 283 285 286 288 288 289 289 289 288 288 288 288 288 289 289 290 291 292 293 294 295 296 299 302 306 310 310 311 311 312 315 318 321 325 323
200 199 198 197 197 196 195 194 194 194 194 194 195 196 197 197 198 198 199 199 199 201 203 206 209 209 209 206 203 201 200 199 199 198 198 198 199 200 201 202 204 204 204 202 200 199 198 198 199 199 200 201 203 204 205 204 204 205 206 210 214 217 221 222 223 223 224 225 226 227 228 229 230 231 233 234 236 237 238 240 243 243 243 235 227 220 214 214 215 215 215 214 214 213 213 213 214 214 214 214 215 215 216 216 216 216 217 217 217 217 217 216 215 213 212 212 213 213 214 214 214 213 213 213 214 215 217 220 224 228 232 230 229 227 225 226 227 228 229 228 228 227 227 228 230 232 234 234 234 232 231 230 229 229 229 229 229 229 229 231 234 237 240 239 239 237 235 235 235 237 239 240 241 240 240 240 241 241 242 242 242 241 241 243 245 249 253 254 256 255 255 254 254 253 253 252 252 251 250 250 251 252 253 254 255 255 255 255 255 256 258 259 260 259 259 259 259 260 261 262 263 263 264 265 266 268 270 271 273 271 270 269 268 268 268 268 268 267 267 267 267 268 269 271 273 273 274 275 276 276 276 276 276 277 278 278 279 278 278 278 279 280 281 282 283 284 285 285 286 286 287 287 288 288 288 288 289 289 290 291 293 295 298 297 297 296 295 297 299 302 305 306 307 307 308 309 310 312 314 315
198 196 194 192 191 191 192 192 193 194 195 195 196 196 197 198 199 199 199 199 199 200 202 204 207 207 207 205 204 202 201 200 199 198 198 198 199 199 199 199 200 200 200 199 199 198 198 198 199 199 199 198 198 198 198 198 199 200 202 205 209 212 216 218 220 222 224 224 225 225 226 225 224 224 224 225 226 227 229 232 235 236 237 230 223 216 210 210 210 210 210 210 211 211 211 211 212 212 213 213 214 214 214 214 214 214 214 215 216 216 217 217 217 216 216 216 216 216 217 220 223 227 231 227 224 220 217 218 219 221 223 222 222 220 219 221 223 225 228 228 228 227 227 228 230 232 234 235 236 237 238 236 234 230 226 226 227 228 230 233 236 240 245 244 243 240 238 237 237 238 240 240 240 240 240 240 240 240 241 241 242 243 244 245 247 249 252 253 255 255 255 255 255 254 254 253 252 251 250 251 252 252 253 254 256 256 256 256 256 257 258 259 260 259 259 259 259 261 264 266 269 268 268 266 265 266 267 268 269 268 268 267 266 266 266 266 267 267 267 267 267 268 269 270 272 272 273 274 275 275 276 276 276 276 277 277 277 277 278 278 279 280 282 283 284 284 285 285 286 286 287 287 288 288 289 289 290 290 290 292 295 298 302 301 301 298 295 296 297 298 300 301 303 305 307 308 310 311 313 314
192 191 191 190 189 190 191 192 193 194 195 195 196 196 197 197 198 198 198 198 198 198 199 200 202 202 203 203 203 202 201 200 199 199 199 200 201 200 200 199 198 197 197 197 198 198 199 199 200 200 200 199 198 198 198 198 198 199 201 203 205 207 210 213 217 219 221 222 224 224 225 223 222 221 220 221 223 224 225 225 226 225 225 221 217 213 209 208 208 207 207 207 208 208 209 210 211 211 212 212 212 212 212 212 213 213 214 214 215 216 217 217 218 218 219 219 219 219 220 223 226 229 232 230 228 225 223 221 220 218 217 217 218 218 219 221 223 225 228 228 228 227 227 228 230 231 233 232 232 231 231 233 236 239 243 241 240 236 233 235 238 242 246 245 245 243 241 240 239 239 240 240 240 239 239 239 239 239 239 240 241 242 244 245 247 249 251 252 254 254 255 255 255 254 254 253 252 251 250 251 253 254 256 258 260 260 260 259 258 258 259 260 261 260 260 261 262 265 268 271 274 273 272 269 266 265 265 265 266 265 264 263 263 263 264 265 266 266 267 267 268 269 271 271 272 272 273 273 274 274 275 275 276 276 277 277 277 277 278 279 280 283 286 287 289 287 286 286 286 286 287 287 288 289 291 291 292 292 292 294 296 299 303 302 302 299 297 297 297 298 299 300 302 303 305 307 309 311 313 314
191 190 190 189 188 189 190 191 193 194 195 195 196 196 197 197 197 197 198 198 198 198 199 199 200 201 202 202 203 202 202 200 198 198 199 200 202 201 201 199 198 197 197 197 198 199 200 201 202 202 202 202 202 201 200 199 198 198 199 201 203 205 207 209 211 213 215 218 221 222 223 220 217 215 213 215 217 217 218 217 217 215 214 212 211 210 209 210 211 211 211 210 210 209 209 209 210 210 210 210 210 210 211 211 212 212 213 214 215 216 217 218 219 220 221 221 221 221 222 223 224 225 227 227 227 226 226 227 228 228 229 227 226 224 223 224 225 227 229 228 228 227 227 227 228 229 231 231 232 232 232 235 239 243 247 245 244 240 236 237 239 242 245 245 246 244 243 242 242 242 242 241 241 240 240 239 239 238 237 238 239 241 243 245 247 248 250 251 252 253 254 254 255 255 255 254 254 253 252 254 256 257 259 262 265 265 265 263 261 261 262 263 264 264 264 265 267 271 275 277 279 276 273 270 267 267 268 269 270 268 267 265 264 265 267 268 270 271 272 272 273 274 275 274 273 272 272 272 272 272 272 272 272 273 275 276 278 278 279 280 281 284 287 288 290 288 287 286 286 287 288 289 290 291 292 292 293 293 293 295 297 300 303 303 303 301 300 301 302 303 304 304 304 304 304 306 308 310 313 313
189 188 188 187 187 188 189 191 193 194 195 195 196 196 196 196 196 196 197 197 197 197 198 199 200 199 198 197 196 196 196 196 197 198 199 200 202 201 201 199 198 197 197 198 199 199 200 201 202 203 204 205 207 207 207 204 202 201 200 201 203 204 206 208 210 211 212 212 212 212 212 210 209 208 207 208 210 211 212 212 213 212 212 211 210 210 210 211 213 214 215 213 212 210 209 209 209 209 209 209 210 210 210 211 213 214 215 215 216 216 217 218 220 221 222 222 222 222 223 223 223 223 224 226 229 231 233 233 233 233 234 232 231 229 227 227 228 228 229 228 228 227 227 226 225 224 224 226 228 231 234 237 240 243 246 244 243 240 237 237 238 241 244 244 245 245 245 245 245 245 245 244 243 242 241 241 241 242 243 243 243 243 244 245 246 247 249 250 251 252 254 255 256 256 257 257 257 255 254 256 258 260 263 266 269 269 269 267 266 267 268 268 269 269 269 271 274 276 279 279 279 277 275 274 273 273 274 275 276 275 274 273 273 276 279 282 286 286 287 288 289 288 287 283 279 277 275 273 272 272 272 272 273 274 276 277 278 278 279 279 279 280 281 281 282 283 284 285 287 288 290 291 292 292 293 293 293 293 294 295 296 298 300 300 301 301 302 303 304 305 307 306 305 304 303 305 308 310 313 313
189 188 187 186 185 187 189 191 194 194 195 195 196 196 196 195 195 195 196 196 197 197 198 198 199 198 197 195 193 193 194 195 196 197 199 200 202 202 202 201 200 199 199 199 200 200 201 201 202 203 204 205 206 205 205 203 201 200 199 199 200 201 202 203 205 206 207 207 207 206 206 205 204 204 204 204 205 206 208 208 209 209 210 210 210 210 210 211 213 214 215 213 212 210 209 209 209 208 208 208 209 209 210 211 213 214 216 216 216 216 217 218 220 221 223 222 222 221 221 222 223 223 224 227 231 234 237 236 236 235 234 233 232 231 230 230 230 229 229 228 228 227 226 225 225 224 223 225 228 231 235 237 239 241 243 243 243 241 240 240 241 241 242 242 243 243 244 244 245 245 245 244 243 242 241 242 243 245 248 248 248 247 246 246 246 247 248 249 251 252 254 255 256 257 258 257 256 254 252 254 256 261 266 268 271 271 272 271 271 272 274 275 276 276 276 277 278 279 281 280 280 279 279 280 281 284 287 288 290 290 290 290 290 292 295 298 301 300 300 300 300 300 301 298 296 292 289 285 282 281 281 280 279 280 281 281 282 281 281 281 281 281 282 283 284 284 284 285 286 288 291 291 292 291 291 291 292 293 294 294 295 296 297 297 298 298 299 301 303 306 309 307 305 302 300 303 306 308 311 312
189 188 187 186 185 187 189 192 195 195 196 195 195 195 195 194 194 194 195 195 196 197 198 198 199 197 196 194 193 193 194 195 197 198 199 200 201 201 202 201 201 201 201 201 201 201 202 202 203 202 202 201 200 199 199 199 200 200 200 199 199 199 200 201 203 204 205 205 206 205 205 204 203 202 201 202 203 204 205 206 208 209 210 209 209 209 210 211 213 213 214 212 211 209 208 208 208 208 208 208 209 209 210 211 212 213 215 215 216 216 217 219 221 222 224 223 222 221 221 222 223 224 225 228 231 234 238 237 236 235 234 234 234 233 233 233 233 232 232 230 229 227 226 225 224 223 222 225 228 231 235 235 236 236 237 238 240 240 241 241 242 242 242 242 243 243 244 244 244 244 245 244 244 243 242 243 244 246 249 248 248 247 246 246 246 247 248 248 248 247 247 249 251 253 256 256 257 254 252 254 257 263 269 270 272 272 272 271 271 273 276 279 282 283 284 284 284 283 283 282 281 281 281 283 286 290 294 297 300 299 299 298 298 300 303 305 308 307 306 304 303 303 304 302 300 298 296 294 293 295 297 298 299 296 294 292 290 293 296 297 299 297 296 294 292 289 286 285 284 284 285 286 287 288 289 289 290 291 292 292 293 293 294 294 294 294 295 298 301 304 308 305 303 300 297 300 304 307 310 310
193 192 191 190 189 190 192 193 195 195 196 195 195 194 194 193 193 193 194 194 195 196 197 198 199 197 196 194 192 193 194 195 197 198 199 200 201 201 201 201 201 201 201 201 202 202 202 202 203 202 202 201 200 200 200 200 200 200 200 199 199 199 200 201 203 204 205 205 206 205 205 203 201 200 200 201 202 203 204 206 208 209 210 209 209 209 210 211 213 213 214 212 211 209 208 208 208 207 207 207 208 208 209 209 210 211 212 213 215 216 218 219 221 222 224 223 222 221 221 223 226 228 230 231 233 235 237 235 234 232 231 232 233 234 235 236 237 237 238 236 234 231 228 227 226 225 224 227 230 233 237 236 236 234 233 235 237 239 242 242 243 242 242 242 243 243 244 244 245 245 245 244 244 243 243 244 245 247 249 248 248 247 246 246 246 246 247 247 248 248 249 250 252 254 257 258 259 259 259 261 263 268 274 274 275 274 274 274 275 277 279 281 283 283 284 285 286 288 290 293 296 296 296 295 295 298 301 303 305 304 303 302 302 305 308 311 315 313 311 309 307 307 308 308 308 307 307 307 307 308 309 310 311 308 306 304 303 306 310 311 312 308 305 301 297 292 288 285 282 281 281 281 282 284 287 288 289 290 291 291 292 292 293 293 293 293 293 295 298 301 305 303 301 298 296 299 303 306 310 309
193 192 191 190 189 190 191 192 193 193 193 193 193 192 192 191 191 191 192 193 194 195 196 197 198 197 196 194 192 193 194 195 197 198 199 200 201 201 201 200 200 200 201 201 202 202 203 202 202 202 202 202 202 202 202 201 200 199 199 198 198 199 200 201 203 204 205 205 206 205 205 203 201 200 200 201 202 203 205 206 208 208 209 209 209 209 209 210 212 213 214 212 210 209 208 207 207 207 207 207 208 208 209 209 209 209 210 212 214 216 218 220 222 223 225 224 223 222 221 224 227 229 232 233 234 235 237 234 232 229 227 229 232 234 237 238 239 240 242 240 238 236 234 233 232 231 231 232 234 236 238 240 242 244 246 245 245 245 245 244 244 243 243 243 244 244 245 245 246 247 248 247 246 245 244 245 246 247 249 248 248 247 246 246 246 246 247 249 251 254 257 258 259 259 259 260 262 264 267 269 272 274 277 278 279 279 279 279 280 281 282 283 284 284 284 285 287 292 297 301 306 306 306 305 304 307 311 313 316 314 312 310 308 310 312 314 316 314 313 311 310 310 311 312 313 314 315 315 316 315 315 314 313 310 307 305 304 307 311 312 314 311 309 308 307 308 310 307 305 299 293 290 288 288 288 288 289 290 291 291 292 292 293 292 292 291 291 293 296 299 302 300 299 297 296 299 302 305 308 306
