ncols 160
nrows 91
xllcorner 245814.500000
yllcorner 688877.500000
cellsize 5.000000
NODATA_value -9999.000000
38.88 38.69 38.75 38.69 38.68 38.42 37.96 38.10 38.68 38.69 40.78 44.02 44.34 46.87 53.17 55.53 55.36 56.56 56.39 52.59 48.92 45.95 43.59 40.55 39.79 39.08 39.51 39.37 39.77 39.87 39.85 40.23 40.35 40.27 40.59 41.07 41.64 42.28 42.35 42.10 42.74 42.88 43.16 43.91 44.19 44.58 44.86 45.58 45.98 45.81 46.16 46.53 46.31 46.70 47.48 48.01 48.57 48.49 48.74 49.57 50.40 51.01 51.11 51.22 51.20 51.35 51.65 51.90 52.12 52.18 52.43 52.88 52.78 52.66 53.08 53.74 54.31 54.29 54.55 54.19 53.74 56.97 59.36 60.02 58.31 57.47 57.27 57.93 57.45 57.39 57.10 56.56 56.56 56.94 57.06 56.87 56.89 57.14 57.36 57.53 57.43 57.21 57.20 57.42 57.54 57.98 58.19 57.90 58.03 58.62 58.68 58.31 57.96 57.96 58.25 58.33 58.45 58.60 58.57 58.48 58.52 58.80 59.48 59.75 59.29 58.87 58.77 58.79 59.09 59.69 60.19 59.74 59.17 59.06 58.98 59.03 59.40 59.57 59.45 59.43 59.51 59.87 60.30 60.44 60.10 60.06 60.36 60.44 60.48 60.07 59.61 59.83 60.36 60.65 60.32 60.08 60.09 60.07 60.23 60.29 
38.67 38.60 38.62 38.17 38.09 38.03 38.17 38.55 38.75 38.68 41.90 44.27 48.76 54.87 56.77 55.54 55.62 56.03 52.56 49.94 47.81 45.48 42.01 39.24 39.02 39.21 39.26 39.06 39.54 39.64 39.62 40.06 40.30 40.43 40.80 41.27 41.62 42.13 42.19 42.43 43.13 42.99 43.23 43.48 43.69 44.37 45.07 45.82 46.11 46.01 46.69 47.17 46.86 47.17 47.84 48.09 48.41 48.77 49.36 49.98 50.56 50.91 50.81 51.13 51.34 51.25 51.40 51.82 52.26 52.56 52.55 52.62 52.73 52.85 53.28 54.02 54.47 54.68 55.07 54.71 55.18 56.35 57.16 57.53 57.85 57.87 58.68 58.37 57.57 57.41 57.30 56.74 56.68 57.10 57.19 56.93 56.82 56.96 57.02 57.25 57.47 57.36 57.15 57.17 57.46 57.70 57.57 57.53 57.96 58.25 58.41 58.34 58.18 58.10 58.19 58.47 58.63 58.37 58.34 58.56 58.65 58.78 59.07 59.33 59.10 58.86 58.79 59.05 59.20 59.40 59.72 59.54 59.38 59.30 58.86 58.46 58.95 59.34 59.62 59.65 59.38 59.47 59.82 60.17 59.96 59.72 59.65 59.72 59.93 59.59 59.25 59.63 60.22 60.45 60.30 60.14 59.82 59.67 59.94 60.10 
38.25 38.10 38.15 37.68 37.55 37.88 38.37 38.86 39.13 42.86 44.88 48.57 53.39 54.96 55.48 56.32 55.85 52.26 49.30 47.48 46.18 43.28 39.78 39.34 39.57 39.82 39.39 39.06 39.47 39.82 40.15 40.59 40.58 40.46 40.63 41.00 41.37 41.93 42.24 42.89 43.22 43.34 43.72 43.64 43.84 44.58 45.12 45.80 46.27 46.29 46.67 47.03 46.85 47.34 48.00 48.40 48.88 49.14 49.38 49.62 50.08 50.32 50.48 51.09 51.43 51.20 51.26 51.74 52.42 52.81 52.76 52.75 52.95 53.05 53.40 54.11 54.34 54.31 54.62 55.13 56.91 57.16 57.35 57.59 57.69 57.46 57.50 57.30 56.97 57.24 57.28 56.75 56.78 56.99 57.11 57.02 57.07 57.20 57.40 57.78 58.14 57.91 57.49 57.36 57.67 57.71 57.28 57.32 57.61 57.64 57.93 58.38 58.50 58.16 58.02 58.56 58.68 58.20 58.31 58.51 58.66 58.75 58.68 58.68 58.74 58.73 58.78 59.26 59.30 59.12 59.19 59.39 59.58 59.39 58.78 58.63 58.88 58.77 59.50 60.06 59.56 58.94 58.88 59.55 59.73 59.59 59.43 59.28 59.30 59.16 59.18 59.63 60.07 59.96 59.88 59.83 59.60 59.50 59.59 59.89 
37.80 37.48 37.48 37.62 38.23 39.02 40.15 40.76 43.25 48.25 50.20 53.64 53.95 54.02 55.77 56.87 54.10 49.96 46.52 44.35 42.49 39.90 39.45 39.57 39.79 39.82 39.41 39.17 39.39 39.80 40.45 40.83 40.56 40.35 40.58 40.80 41.15 41.51 42.06 42.73 42.75 43.35 43.92 43.93 44.35 44.92 45.05 45.27 45.96 45.95 46.14 46.44 46.81 47.49 48.12 48.76 49.18 49.33 49.13 49.03 49.43 50.20 50.69 51.19 51.35 51.29 51.50 52.03 52.45 52.87 53.01 53.17 53.42 53.24 53.49 54.05 53.99 53.91 54.20 55.30 56.76 57.66 58.66 59.39 57.86 56.80 56.92 57.01 57.09 57.25 57.00 56.73 56.95 57.20 57.37 57.30 57.35 57.49 57.69 57.96 58.06 57.84 57.51 57.26 57.64 57.75 57.40 57.47 57.65 57.55 57.81 58.14 58.37 58.13 58.04 58.54 58.54 58.25 58.42 58.49 58.55 58.59 58.39 58.53 59.07 59.19 59.16 59.51 59.46 58.94 58.70 59.08 59.34 59.10 58.89 59.34 59.16 58.75 59.46 60.15 59.73 58.97 58.75 59.25 59.54 59.57 59.30 58.99 59.03 59.08 59.24 59.52 59.51 59.48 59.53 59.56 59.63 59.44 59.22 59.71 
37.47 37.31 37.37 39.17 40.28 40.97 44.15 44.93 48.32 51.33 53.19 54.30 54.41 54.61 56.17 54.72 50.58 46.59 43.07 40.64 38.92 39.34 39.59 39.59 39.61 39.60 39.45 39.30 39.35 39.45 39.91 40.37 40.34 40.57 40.88 41.09 41.45 41.57 42.00 42.25 42.20 42.78 43.46 43.68 44.23 44.89 44.90 44.82 45.05 45.46 46.21 46.76 47.26 47.65 48.29 48.84 49.19 49.28 49.17 49.19 49.67 50.42 51.01 51.24 51.10 51.32 51.77 52.15 52.43 52.83 52.93 53.12 53.36 53.23 53.49 53.82 53.83 53.93 54.33 55.04 55.87 56.47 57.82 58.37 57.27 56.92 57.18 57.67 57.76 57.29 56.89 57.03 57.41 57.70 57.60 57.40 57.44 57.57 57.77 57.81 57.63 57.56 57.31 57.04 57.40 57.80 57.72 57.91 58.01 58.01 57.89 57.81 58.09 57.83 57.79 58.11 58.15 58.40 58.81 58.72 58.54 58.41 58.30 58.61 59.16 59.58 59.52 59.62 59.39 58.66 58.58 58.90 59.01 58.93 59.19 59.61 59.10 58.79 59.30 59.74 59.67 59.33 59.04 59.11 59.20 59.16 58.93 58.90 59.10 59.16 59.30 59.10 58.89 59.00 59.13 59.19 59.46 59.32 59.04 59.36 
39.15 38.60 39.36 42.37 41.82 44.39 48.75 48.37 50.75 51.37 51.71 53.68 54.93 54.61 52.96 50.13 48.21 45.39 42.01 39.07 38.93 39.25 39.51 39.66 39.62 39.65 39.67 39.75 39.71 39.44 39.68 40.47 40.56 40.67 40.83 41.20 42.05 42.41 42.41 42.38 42.29 42.96 43.56 43.42 43.64 44.10 44.53 44.71 44.77 45.56 46.44 46.76 47.04 47.43 48.08 48.54 48.88 49.18 49.28 49.66 50.12 50.63 51.18 51.21 51.02 51.49 51.95 52.14 52.29 52.54 52.32 52.58 53.07 53.26 53.58 53.69 53.71 53.90 54.23 54.81 55.17 55.49 56.17 56.39 56.83 56.82 56.75 57.13 57.43 57.23 57.15 57.40 57.58 57.80 57.61 57.46 57.49 57.44 57.49 57.49 57.54 57.67 57.43 57.16 57.64 57.98 58.06 58.32 58.41 58.38 58.21 58.29 58.37 57.99 57.75 57.77 58.02 58.88 59.24 58.88 58.42 58.34 58.71 58.56 58.61 59.04 59.22 59.22 58.92 58.74 59.02 58.99 59.00 58.85 59.16 59.29 58.73 58.59 59.12 59.49 59.54 59.42 59.12 58.88 58.49 58.43 58.61 59.11 59.14 59.05 59.10 58.84 58.67 58.64 58.57 58.71 59.10 59.29 59.01 58.95 
42.43 41.68 43.29 44.44 44.90 51.76 51.09 50.45 51.68 50.84 49.75 51.49 54.47 52.12 46.81 45.47 45.41 43.30 39.87 38.86 39.26 39.37 39.85 39.84 39.67 39.98 40.16 40.04 39.85 39.56 40.22 40.87 40.75 40.74 40.50 40.82 41.89 42.32 42.28 42.50 43.11 44.05 44.09 43.68 43.55 43.69 44.20 44.79 45.35 46.07 46.26 46.64 47.10 47.47 47.83 48.11 48.68 48.96 49.35 49.62 49.78 50.46 51.07 50.92 50.90 51.43 51.99 52.18 52.45 52.38 51.87 52.20 52.73 53.14 53.71 53.84 53.74 53.86 54.12 54.47 55.05 55.61 56.29 57.90 58.35 58.07 56.83 56.97 57.03 57.41 57.60 57.56 57.39 57.44 57.21 57.32 57.52 57.40 57.25 57.12 57.23 57.42 57.36 57.38 57.61 57.70 57.99 58.39 58.24 58.21 58.38 58.50 58.40 58.23 58.21 57.82 57.98 58.97 59.25 58.72 58.08 58.35 58.85 58.41 58.22 58.67 58.77 58.77 58.66 59.04 59.15 59.01 58.85 58.48 58.77 59.02 58.88 58.98 59.41 59.46 59.22 58.96 58.98 58.71 58.20 58.10 58.50 59.01 58.89 58.76 58.78 58.67 58.65 58.58 58.66 58.78 58.87 58.91 58.81 58.65 
46.76 46.07 45.17 43.42 45.82 49.78 46.05 45.60 46.79 47.13 45.51 44.82 46.73 43.89 41.46 40.88 40.90 39.41 38.29 38.95 39.42 39.48 39.86 39.58 39.36 39.74 40.09 39.89 39.80 40.32 40.92 40.90 41.01 41.06 40.75 40.81 41.41 41.55 41.68 42.73 43.72 44.33 44.05 43.74 43.81 43.85 44.27 45.23 46.02 46.12 46.17 46.98 47.40 47.74 47.91 48.30 48.59 48.75 49.19 49.03 49.05 50.04 50.51 50.67 50.80 51.06 51.69 52.13 52.55 52.32 51.91 52.15 52.37 52.66 53.58 53.73 53.75 54.04 54.39 54.52 54.64 55.03 57.75 60.68 61.22 60.24 58.12 56.87 57.23 57.56 57.81 57.84 57.76 57.36 57.24 57.14 57.46 57.65 57.56 57.23 57.19 57.32 57.48 57.45 57.50 57.61 57.89 58.00 57.79 57.86 58.11 58.19 58.14 58.35 58.27 57.80 57.86 58.61 58.95 58.62 58.12 58.36 58.55 58.20 58.38 58.59 58.73 59.08 59.40 59.44 59.09 58.78 58.39 58.18 58.67 59.25 59.49 59.37 59.30 59.03 58.65 58.51 58.79 58.78 58.29 58.27 58.46 58.72 58.76 58.72 58.53 58.36 58.44 58.54 58.79 58.68 58.39 58.33 58.52 58.62 
49.17 46.11 43.53 41.60 42.03 39.40 37.15 37.43 38.25 39.43 38.87 38.45 38.49 38.83 39.56 39.45 38.78 38.25 38.50 39.35 39.66 39.74 39.94 39.43 39.43 39.52 40.02 39.68 40.04 40.97 40.95 40.64 40.85 41.15 41.18 41.33 41.55 41.43 41.90 42.90 43.49 43.72 43.78 43.93 43.97 44.10 44.75 45.74 46.28 46.03 46.21 46.81 47.10 47.66 48.30 48.53 48.31 48.55 49.25 49.03 49.04 49.73 50.09 50.45 50.53 50.60 51.13 51.69 52.00 52.12 52.29 52.47 52.37 52.89 53.73 53.66 53.72 54.02 54.51 54.63 54.00 54.08 58.19 61.73 62.22 60.71 58.38 57.18 57.26 57.20 57.40 57.89 58.04 57.59 57.27 57.29 57.37 57.52 57.55 57.51 57.68 57.87 57.94 57.74 57.85 58.06 58.20 58.12 58.02 58.08 58.19 58.30 58.40 58.47 58.55 58.24 58.12 58.39 58.87 58.93 58.40 58.36 58.31 58.25 58.62 58.52 58.67 59.21 59.65 59.40 58.84 58.60 58.30 58.35 58.79 59.34 59.29 58.88 58.65 58.59 58.47 58.45 58.74 58.40 58.11 58.40 58.35 58.22 58.47 58.62 58.41 58.30 58.33 58.45 58.51 58.31 58.17 58.29 58.56 58.68 
44.46 40.61 38.66 39.68 38.63 36.38 36.84 37.19 37.69 38.58 38.75 38.72 38.63 39.04 39.53 39.46 39.03 38.87 38.86 39.41 39.31 39.71 39.90 39.49 39.41 40.34 40.48 39.95 40.17 40.85 40.93 40.73 40.78 41.14 41.46 41.58 41.44 41.46 42.13 42.87 43.05 43.41 44.09 44.27 44.12 44.21 44.91 45.68 46.04 45.83 46.16 46.64 46.93 47.65 48.32 48.31 48.01 48.70 49.58 49.41 49.32 49.64 49.94 50.31 50.44 50.55 50.86 51.19 51.56 52.04 52.65 52.76 52.69 53.33 53.87 53.69 53.65 53.72 53.95 54.02 54.34 56.99 59.85 61.32 60.90 58.77 56.86 56.72 56.79 56.77 57.20 57.70 57.76 57.73 57.86 57.80 57.34 57.08 57.28 57.84 58.04 57.91 58.02 58.14 58.21 58.16 58.24 58.36 58.37 58.38 58.46 58.48 58.31 58.64 59.07 58.78 58.48 58.40 59.01 59.08 58.41 58.22 58.10 58.41 58.81 58.60 58.57 58.87 59.19 58.94 58.63 58.47 58.40 58.58 58.87 58.98 58.72 58.39 58.57 58.76 58.49 58.38 58.28 57.92 58.09 58.51 58.13 57.72 57.94 58.20 58.34 58.38 58.49 58.58 58.50 58.30 58.45 58.66 58.75 58.72 
42.80 38.71 36.63 36.26 37.00 36.43 37.44 37.83 38.46 39.10 39.12 39.18 39.32 39.28 39.32 39.15 38.83 38.59 39.14 39.48 39.44 39.75 39.83 39.59 39.93 40.76 40.58 39.95 40.04 40.79 41.31 41.05 40.81 41.02 41.35 41.42 41.41 41.51 42.01 42.88 43.26 43.77 44.43 44.66 44.34 44.26 44.79 45.31 45.63 45.60 45.99 46.80 47.26 47.64 48.03 47.91 47.88 48.89 49.70 49.67 49.55 49.69 49.99 50.42 50.72 51.06 51.13 51.46 51.76 52.06 52.47 52.67 52.70 53.34 53.64 53.34 53.55 53.82 53.74 54.15 59.38 60.90 61.06 60.61 58.93 56.57 56.28 56.58 56.58 56.81 57.54 57.66 57.52 57.71 58.08 58.05 57.51 57.04 57.31 57.88 57.79 57.35 57.70 58.19 58.06 57.82 57.98 58.23 58.26 58.46 58.65 58.17 57.83 58.43 58.90 58.77 58.43 58.36 58.96 58.71 58.23 58.06 57.97 58.38 58.44 58.22 58.31 58.44 58.46 58.50 58.53 58.47 58.35 58.57 58.80 58.82 58.43 58.20 58.67 58.76 58.48 58.24 57.97 58.00 58.54 58.87 58.34 57.80 57.66 57.88 58.22 58.31 58.42 58.58 58.49 58.31 58.35 58.63 58.84 58.79 
41.32 38.36 36.51 36.42 36.67 36.81 38.09 38.48 38.80 38.95 39.09 39.63 39.94 39.60 39.22 39.06 38.94 39.11 39.61 39.96 40.17 40.44 40.36 40.16 40.30 40.43 40.13 39.80 40.10 41.19 41.65 41.48 41.24 41.23 41.37 41.71 42.06 42.04 42.24 43.14 43.56 43.82 44.58 45.00 44.62 44.59 44.82 45.08 45.30 45.59 46.18 47.00 47.60 47.89 47.99 47.82 47.87 48.74 49.34 49.51 49.68 49.79 50.11 50.63 51.04 51.11 51.14 51.81 52.26 52.33 52.55 52.69 52.72 53.26 53.15 52.80 53.24 53.83 53.62 57.43 62.00 61.21 60.50 59.06 56.67 55.76 56.60 56.74 56.50 57.11 57.97 57.80 57.44 57.43 57.76 57.99 57.84 57.70 57.61 57.59 57.41 57.09 57.48 57.80 57.86 57.84 58.03 58.22 58.31 58.59 58.32 57.89 57.89 58.44 58.57 58.54 58.19 58.15 58.51 58.47 58.29 58.10 58.02 58.17 57.91 57.72 58.10 58.10 57.84 57.99 58.48 58.49 58.35 58.33 58.55 58.67 58.24 57.95 58.10 58.29 58.30 58.28 58.13 58.30 58.73 58.94 58.67 58.03 57.46 57.47 57.93 58.29 58.27 58.18 58.12 58.09 58.14 58.58 58.68 58.66 
36.90 37.22 36.67 36.25 36.46 37.18 38.31 38.79 38.93 38.90 38.88 39.28 39.70 39.70 39.67 39.77 39.79 39.68 39.67 39.82 40.31 40.59 40.74 40.88 40.81 40.58 40.35 39.96 40.21 41.13 41.84 42.23 41.96 41.54 41.58 41.90 42.48 42.48 42.68 43.21 43.21 43.45 44.37 44.62 44.39 44.59 44.84 44.88 45.08 45.80 46.37 46.86 47.40 47.82 48.07 48.10 48.27 48.77 49.14 49.29 49.61 49.68 49.92 50.59 51.13 50.97 50.92 51.51 51.89 52.26 52.74 52.71 52.73 53.18 53.08 52.82 53.13 53.38 53.18 59.04 61.39 60.45 59.00 56.61 54.99 55.50 56.37 56.26 56.06 56.78 57.67 57.58 57.28 56.98 57.15 57.53 57.88 58.06 57.58 57.35 57.30 57.51 57.62 57.65 57.87 57.85 57.95 58.22 58.51 58.27 57.94 57.96 58.53 58.66 58.54 58.46 58.13 57.95 58.39 58.79 58.70 58.31 58.10 58.20 58.08 58.22 58.52 58.21 57.75 57.97 58.47 58.75 58.82 58.55 58.67 58.69 58.25 57.75 57.77 57.93 58.06 58.14 58.38 58.46 58.49 58.74 58.73 58.28 57.53 57.12 57.60 58.32 58.39 57.99 57.91 58.07 58.35 58.68 58.68 58.69 
37.07 36.94 36.70 36.58 36.72 37.57 38.47 38.87 39.24 39.28 39.06 39.11 39.54 39.77 40.11 40.30 39.97 39.56 39.47 39.79 40.23 40.25 40.42 40.66 40.48 40.53 40.58 40.20 40.24 40.64 41.44 42.17 41.93 41.47 41.42 41.98 42.47 42.50 42.83 43.09 43.11 43.49 44.00 43.99 44.15 44.48 44.75 44.92 45.22 45.84 46.24 46.60 47.15 47.64 47.94 48.18 48.55 49.17 49.30 49.44 49.71 49.64 49.69 50.31 50.98 50.99 50.96 51.05 51.29 51.93 52.40 52.35 52.73 53.37 53.33 53.12 53.24 52.92 54.36 60.25 60.66 59.93 57.79 55.28 54.58 55.09 55.63 56.00 56.06 56.28 56.42 56.61 56.87 56.71 56.75 56.86 57.19 57.40 57.31 57.14 57.41 57.88 57.78 57.66 57.67 57.51 57.66 58.18 58.44 58.28 58.03 58.30 58.77 58.69 58.54 58.56 58.30 57.94 58.36 58.94 58.72 58.25 57.96 57.95 58.24 58.70 58.74 58.39 57.89 57.91 58.16 58.64 58.89 58.87 59.05 58.75 58.13 57.65 57.71 57.87 57.78 57.82 58.15 58.28 58.24 58.40 58.50 58.38 57.81 57.30 57.49 57.94 58.15 57.75 57.49 57.70 58.24 58.68 58.77 58.72 
36.91 36.76 36.61 37.00 37.47 38.36 38.69 38.99 39.32 39.36 39.47 40.04 40.08 39.54 39.49 39.79 39.65 39.70 40.11 40.61 40.50 40.02 40.07 40.26 40.16 40.54 40.63 40.43 40.53 40.60 41.15 41.91 42.08 41.73 41.76 42.41 42.60 42.57 42.99 43.30 43.47 43.78 43.83 43.89 44.47 44.74 44.73 45.00 45.43 45.78 46.00 46.60 47.23 47.46 47.73 47.96 48.70 49.29 49.35 49.58 49.74 49.67 49.79 50.38 50.93 50.96 50.81 50.88 51.38 52.09 52.36 52.29 52.68 53.15 53.12 53.07 53.33 53.65 58.57 60.81 60.43 59.29 56.86 54.98 54.77 55.10 55.61 56.36 56.58 56.34 56.01 56.27 56.76 56.87 56.90 56.62 56.44 56.66 56.84 56.97 57.23 57.57 57.53 57.49 57.46 57.51 57.75 58.05 58.08 58.02 57.89 58.09 58.53 58.42 58.30 58.47 58.26 57.81 58.20 58.70 58.44 58.14 57.97 58.02 58.46 58.45 58.22 58.00 57.84 57.81 57.75 57.98 58.37 58.96 59.17 58.67 58.05 57.76 57.89 57.95 57.67 57.50 57.59 57.62 57.68 58.02 58.04 58.06 57.86 57.73 57.47 57.26 57.40 57.38 57.07 57.17 57.88 58.41 58.62 58.65 
36.28 36.59 37.08 37.44 38.05 38.66 38.95 39.01 39.08 39.26 39.95 40.86 40.55 39.66 39.56 39.49 39.29 39.52 40.21 40.53 40.20 39.79 40.16 40.75 41.06 41.26 40.87 40.76 41.05 41.02 41.47 42.16 42.63 42.43 42.43 43.11 43.05 42.90 43.38 43.58 43.59 43.70 43.72 44.00 45.02 45.23 44.98 45.21 45.70 45.82 46.02 46.81 47.07 47.21 47.53 47.83 48.42 48.89 49.19 49.71 49.85 49.90 50.10 50.58 50.81 50.80 50.81 51.21 51.74 52.17 52.22 52.28 52.55 52.69 52.74 53.12 53.45 55.11 59.33 60.84 60.16 58.36 56.08 55.06 55.52 55.62 55.78 56.27 56.38 56.26 56.25 56.66 57.01 57.06 57.06 56.77 56.59 56.63 56.78 56.84 56.90 57.06 57.21 57.34 57.42 57.65 57.86 57.81 57.73 57.75 57.66 58.04 58.32 58.09 57.86 58.07 58.05 57.78 58.10 58.41 58.26 58.15 58.08 58.29 58.53 58.12 57.58 57.63 57.96 58.09 57.74 57.77 58.29 58.89 58.94 58.32 57.97 57.99 58.05 57.77 57.44 57.43 57.42 57.19 57.46 57.84 57.97 57.82 57.66 57.75 57.35 56.74 56.80 57.06 57.18 57.35 57.88 58.28 58.49 58.57 
36.62 36.83 37.39 37.86 38.21 38.76 39.04 39.02 39.22 39.65 40.24 40.43 39.87 39.60 39.68 39.40 39.16 39.39 39.79 39.93 39.84 39.83 40.50 41.10 41.57 41.32 40.56 40.79 41.03 41.08 41.37 42.03 42.60 42.74 42.87 43.23 43.25 43.23 43.48 43.62 43.66 43.74 43.88 44.25 44.95 45.23 45.22 45.41 45.73 45.92 46.18 46.70 46.97 47.17 47.47 47.81 48.29 48.75 49.16 49.62 49.88 50.06 50.29 50.62 50.84 50.98 51.25 51.83 52.15 52.09 52.00 52.38 52.75 52.87 52.97 53.30 52.89 53.15 58.24 59.86 58.99 56.90 55.14 55.23 56.01 55.91 55.70 55.97 56.26 56.29 56.48 56.86 56.93 56.96 56.85 56.89 56.97 56.94 56.86 56.84 56.74 56.81 57.15 57.27 57.33 57.52 57.55 57.57 57.64 57.74 57.92 58.36 58.27 57.98 57.97 58.11 58.00 57.73 57.79 58.12 58.14 57.99 57.88 58.10 58.25 57.74 57.52 57.65 58.15 58.36 58.07 58.14 58.36 58.45 58.32 58.06 58.12 58.13 58.00 57.66 57.39 57.70 57.61 57.31 57.46 57.98 58.20 57.96 57.60 57.51 57.21 56.80 56.54 56.69 57.06 57.39 57.75 58.06 57.98 57.95 
36.70 37.10 37.73 38.00 38.13 38.46 38.76 38.81 39.19 39.57 39.87 39.63 39.36 39.48 39.45 39.28 39.42 39.60 39.61 39.70 39.80 40.04 40.34 40.50 40.75 40.31 40.04 40.73 41.15 41.26 41.56 42.18 42.61 42.83 43.01 43.21 43.29 43.34 43.48 43.60 43.68 43.80 44.00 44.36 44.84 45.14 45.29 45.49 45.74 45.97 46.26 46.63 46.92 47.18 47.48 47.84 48.27 48.71 49.14 49.56 49.88 50.13 50.38 50.65 50.88 51.11 51.44 51.76 52.10 52.16 52.29 52.60 53.02 53.18 53.48 53.78 52.86 55.83 58.93 58.97 57.51 55.41 54.53 54.91 55.50 55.57 55.48 56.02 56.45 56.39 56.72 56.89 57.00 57.00 56.95 57.14 57.04 56.69 56.69 56.98 56.98 57.11 57.22 57.23 57.45 57.47 57.33 57.14 57.14 57.24 57.68 57.96 57.68 57.84 58.11 58.04 57.79 57.49 57.62 58.03 58.14 57.99 58.02 58.25 58.02 57.55 57.60 57.89 58.17 58.22 58.24 58.46 58.22 57.96 57.98 58.08 58.18 57.96 57.79 57.58 57.46 57.56 57.58 57.54 57.82 57.93 57.88 57.67 57.45 57.14 56.93 56.88 56.57 56.52 56.95 57.20 57.53 57.56 57.21 57.00 
36.91 37.40 37.86 38.07 37.91 38.06 38.30 38.40 38.77 39.29 39.79 39.61 39.60 39.57 39.31 39.41 39.70 39.52 39.33 39.65 39.86 39.96 40.02 39.88 40.01 39.95 40.35 41.20 41.76 41.95 42.04 42.29 42.59 42.82 42.99 43.14 43.24 43.32 43.43 43.55 43.67 43.83 44.05 44.37 44.75 45.05 45.27 45.49 45.74 46.00 46.28 46.60 46.90 47.20 47.52 47.88 48.29 48.71 49.14 49.53 49.87 50.16 50.42 50.66 50.87 51.06 51.25 51.50 51.93 52.55 52.77 52.62 52.60 52.82 53.39 53.69 55.33 58.81 58.86 57.71 55.84 54.54 54.39 54.78 55.29 55.34 55.37 55.87 56.14 56.49 56.91 57.08 57.30 57.20 57.26 57.39 56.88 56.77 56.79 57.23 57.44 57.37 57.09 56.90 57.21 57.38 57.25 56.96 56.86 56.83 57.24 57.54 57.54 57.80 57.95 57.79 57.54 57.27 57.43 57.92 58.04 58.04 58.17 58.20 57.85 57.52 57.80 58.30 58.60 58.49 58.36 58.31 58.05 57.99 57.97 58.05 58.07 57.73 57.52 57.48 57.33 57.20 57.48 58.02 57.98 57.46 57.04 56.92 57.05 56.96 57.14 57.35 57.07 57.06 57.37 57.48 57.61 57.42 57.06 56.98 
36.94 37.23 37.91 38.28 37.89 37.88 38.02 38.22 38.62 39.53 40.09 39.73 39.51 39.12 39.03 39.29 39.48 38.99 39.01 39.55 39.76 40.00 40.24 40.21 40.29 40.52 40.84 41.44 41.92 42.17 42.28 42.43 42.61 42.79 42.93 43.05 43.15 43.24 43.36 43.49 43.64 43.82 44.06 44.35 44.67 44.96 45.22 45.47 45.73 45.99 46.28 46.59 46.91 47.22 47.56 47.93 48.32 48.73 49.14 49.53 49.87 50.17 50.44 50.67 50.87 51.05 51.25 51.52 51.94 52.46 52.72 52.71 52.79 53.14 53.84 54.76 56.55 58.62 58.47 56.84 55.31 54.65 54.47 54.86 55.19 55.25 55.32 55.40 55.83 56.46 56.68 56.79 57.01 56.91 57.14 57.32 56.89 56.71 57.27 57.47 57.57 57.46 56.94 56.67 56.96 57.26 57.25 57.26 57.46 57.48 57.76 57.98 57.84 57.93 58.03 57.96 57.77 57.34 57.34 57.73 57.88 58.05 57.82 57.63 57.69 57.97 57.97 58.36 58.95 58.94 58.47 58.09 57.90 57.86 57.79 57.77 57.67 57.44 57.18 57.11 57.01 57.11 57.68 58.06 57.71 57.10 56.70 56.54 56.66 56.99 57.61 57.81 57.57 57.69 57.95 58.15 57.87 57.38 57.42 57.42 
37.11 37.06 37.65 38.01 37.92 38.18 38.31 38.29 38.47 39.26 39.66 39.49 39.19 38.84 38.86 39.13 39.00 38.69 38.89 39.31 39.63 40.14 40.62 40.37 40.36 40.54 40.98 41.49 41.91 42.18 42.34 42.47 42.61 42.75 42.86 42.97 43.06 43.17 43.29 43.44 43.60 43.80 44.04 44.32 44.61 44.90 45.17 45.44 45.70 45.99 46.28 46.59 46.91 47.24 47.59 47.96 48.35 48.75 49.15 49.53 49.87 50.18 50.46 50.69 50.90 51.09 51.30 51.57 51.94 52.36 52.65 52.84 53.12 53.63 54.44 55.52 56.95 58.13 57.80 56.33 55.54 55.17 54.82 54.98 55.15 55.39 55.53 55.57 55.79 56.15 56.08 56.34 56.48 56.60 57.17 57.38 57.05 57.14 57.47 57.38 57.31 57.12 56.84 56.83 57.10 57.50 57.36 57.39 57.61 57.80 58.29 58.18 57.64 57.60 58.08 58.02 57.86 57.51 57.43 57.48 57.76 58.12 57.72 57.46 58.10 58.32 57.87 57.93 58.54 58.57 58.08 57.79 57.55 57.42 57.53 57.43 57.16 57.00 56.74 56.55 56.52 56.92 57.52 57.66 57.41 57.23 56.99 56.53 56.27 56.49 57.44 57.64 57.48 57.72 58.39 58.67 57.92 57.41 57.51 57.35 
37.31 37.09 37.20 37.57 37.97 38.48 38.44 38.07 38.14 38.84 39.22 39.07 38.71 38.42 38.56 38.85 38.61 38.47 38.85 39.26 39.58 40.13 40.27 40.02 40.29 40.60 41.03 41.44 41.80 42.08 42.28 42.44 42.58 42.70 42.81 42.91 43.01 43.11 43.25 43.40 43.58 43.78 44.02 44.29 44.57 44.86 45.13 45.41 45.69 45.98 46.28 46.60 46.92 47.26 47.62 47.99 48.38 48.77 49.16 49.53 49.88 50.19 50.47 50.72 50.94 51.14 51.35 51.61 51.93 52.29 52.64 52.98 53.43 54.07 54.91 55.88 56.84 57.35 56.68 55.54 55.54 55.40 55.29 55.18 55.32 55.67 55.99 56.13 56.44 56.48 56.27 56.37 56.28 56.63 57.21 57.09 56.86 57.11 57.41 57.28 57.14 56.98 56.92 56.98 57.26 57.57 57.50 57.31 57.04 57.29 57.77 57.63 57.08 57.39 57.85 57.79 57.70 57.43 57.15 56.99 57.39 57.88 57.34 57.24 58.11 58.28 57.84 57.80 58.11 57.94 57.50 57.41 57.12 56.99 57.25 57.17 56.96 56.79 56.53 56.40 56.35 56.46 56.72 57.09 57.22 57.39 57.23 56.64 56.03 56.26 57.11 57.29 57.20 57.47 58.15 58.27 57.73 57.33 57.25 56.97 
36.98 37.12 37.10 37.22 37.63 37.98 37.91 37.69 37.90 38.69 38.82 38.57 38.21 37.73 37.95 38.58 38.46 38.20 38.54 39.23 39.44 39.53 39.74 40.27 40.50 40.71 41.00 41.32 41.62 41.90 42.14 42.34 42.51 42.66 42.77 42.88 42.98 43.09 43.22 43.38 43.56 43.77 44.01 44.27 44.55 44.83 45.11 45.39 45.68 45.97 46.28 46.60 46.93 47.27 47.63 48.00 48.39 48.78 49.16 49.53 49.88 50.20 50.49 50.74 50.97 51.18 51.39 51.64 51.93 52.27 52.66 53.11 53.68 54.39 55.20 56.00 56.64 56.80 56.31 55.63 55.51 55.43 55.36 55.30 55.44 55.79 56.43 56.96 57.44 57.11 56.72 56.60 56.48 56.69 56.61 56.35 56.37 56.90 57.08 57.02 57.25 57.20 57.03 57.02 57.21 57.39 57.38 57.22 57.04 57.09 57.16 57.19 57.40 57.55 57.54 57.41 57.29 56.97 56.69 56.56 57.02 57.39 56.88 56.88 57.63 57.85 57.72 57.75 57.98 57.66 57.25 57.28 57.07 56.90 56.97 56.98 57.04 56.85 56.63 56.57 56.46 56.03 56.17 56.83 57.16 57.30 57.04 56.46 56.14 56.46 56.69 56.87 57.17 57.47 57.54 57.47 57.27 57.18 56.88 56.74 
36.55 37.03 37.04 37.06 37.13 37.48 37.81 37.78 37.95 38.40 38.47 38.30 37.98 37.46 37.56 38.13 38.27 38.19 38.62 39.17 39.14 39.13 39.81 40.54 40.63 40.70 40.86 41.09 41.37 41.65 41.93 42.19 42.41 42.59 42.74 42.86 42.98 43.09 43.23 43.38 43.57 43.77 44.01 44.27 44.54 44.82 45.10 45.38 45.67 45.97 46.28 46.60 46.93 47.28 47.64 48.01 48.40 48.78 49.17 49.54 49.88 50.21 50.50 50.77 51.00 51.21 51.42 51.65 51.92 52.26 52.69 53.22 53.87 54.61 55.38 56.07 56.51 56.58 56.24 55.80 55.57 55.43 55.34 55.31 55.45 55.84 56.43 57.21 57.48 57.03 56.78 56.94 57.10 56.75 56.37 56.29 56.53 56.86 56.72 56.59 56.96 57.05 56.88 56.99 57.29 57.27 57.04 57.02 57.28 57.26 57.22 57.69 58.03 57.75 57.31 57.14 57.05 56.74 56.33 56.20 56.58 57.06 57.03 57.15 57.33 57.45 57.57 57.86 57.95 57.47 57.22 57.41 57.34 57.19 56.90 56.83 56.91 56.96 56.93 57.02 56.92 56.27 56.43 56.84 56.99 56.94 56.48 56.32 56.65 56.50 56.25 56.27 56.76 57.31 57.38 57.05 57.01 57.07 56.74 56.69 
35.96 36.18 36.38 36.46 36.84 37.24 37.55 37.52 37.47 37.78 37.98 37.96 37.79 37.54 37.45 37.56 37.81 38.39 38.71 38.89 38.97 39.18 39.90 40.17 40.34 40.44 40.56 40.76 41.02 41.32 41.65 41.96 42.25 42.49 42.69 42.85 42.98 43.11 43.25 43.41 43.58 43.78 44.01 44.26 44.53 44.81 45.09 45.38 45.67 45.96 46.27 46.60 46.93 47.28 47.64 48.01 48.40 48.78 49.17 49.54 49.89 50.21 50.51 50.78 51.01 51.22 51.43 51.65 51.92 52.26 52.72 53.30 53.99 54.76 55.51 56.13 56.50 56.53 56.30 55.94 55.66 55.45 55.30 55.22 55.24 55.37 55.74 56.36 56.63 56.56 56.84 57.31 57.46 56.85 56.44 56.62 56.72 56.68 56.28 56.07 56.49 56.69 56.80 56.99 57.19 57.10 56.91 57.00 57.15 57.14 57.27 57.46 57.56 57.34 57.18 57.13 57.18 56.90 56.36 55.98 56.19 56.82 57.28 57.17 56.87 57.03 57.61 58.03 57.77 57.25 57.15 57.27 57.23 57.03 56.78 56.76 56.60 56.74 56.99 57.32 57.18 56.75 56.61 56.48 56.49 56.38 56.44 57.26 57.20 56.48 56.20 56.18 56.29 56.85 57.12 56.99 57.07 56.91 56.56 56.35 
35.47 35.53 35.56 36.08 36.65 36.64 36.63 36.77 36.88 37.32 37.43 37.48 37.32 37.21 37.15 37.08 37.44 37.99 38.26 38.59 38.96 39.33 39.67 39.82 39.94 40.02 40.14 40.32 40.59 40.92 41.29 41.67 42.03 42.34 42.60 42.81 42.98 43.13 43.28 43.44 43.61 43.80 44.02 44.27 44.53 44.81 45.09 45.37 45.66 45.96 46.27 46.59 46.93 47.27 47.64 48.01 48.39 48.78 49.17 49.53 49.89 50.21 50.51 50.78 51.02 51.23 51.43 51.65 51.91 52.26 52.74 53.34 54.07 54.86 55.60 56.19 56.52 56.57 56.37 56.05 55.74 55.48 55.29 55.18 55.15 55.25 55.52 55.95 56.27 56.49 56.87 57.28 57.37 56.97 56.61 56.77 56.96 56.83 56.23 56.15 56.45 56.54 56.60 56.63 56.67 56.79 56.79 56.87 56.77 56.77 56.75 56.58 56.74 56.88 56.91 56.87 56.96 56.94 56.64 56.19 56.25 56.72 57.03 56.78 56.35 56.39 57.09 57.63 57.40 57.09 56.96 56.73 56.63 56.40 56.60 56.79 56.47 56.25 56.43 56.87 56.79 56.48 56.30 56.21 56.08 55.99 56.63 57.24 56.75 56.16 56.54 56.75 56.47 56.44 56.54 56.78 56.80 56.52 56.32 56.04 
35.21 35.22 35.30 35.95 36.42 36.19 36.38 36.75 37.04 37.20 37.29 37.24 37.03 36.85 36.76 36.92 37.21 37.48 37.84 38.34 38.54 38.90 39.18 39.36 39.46 39.55 39.65 39.83 40.09 40.44 40.85 41.29 41.72 42.10 42.44 42.72 42.95 43.14 43.31 43.48 43.65 43.84 44.05 44.28 44.54 44.81 45.09 45.37 45.66 45.96 46.27 46.59 46.93 47.27 47.63 48.01 48.39 48.78 49.16 49.53 49.88 50.21 50.51 50.78 51.02 51.23 51.43 51.64 51.90 52.26 52.74 53.37 54.12 54.92 55.67 56.24 56.58 56.62 56.44 56.14 55.81 55.52 55.32 55.20 55.19 55.28 55.52 55.85 56.18 56.50 56.87 57.20 57.32 57.16 56.70 56.74 57.06 56.97 56.63 56.77 56.80 56.70 56.71 56.63 56.64 56.64 56.67 56.70 56.60 56.62 56.45 56.42 56.69 56.71 56.82 56.87 56.81 56.83 56.70 56.40 56.43 56.55 56.70 56.51 56.07 56.01 56.47 56.80 56.73 56.76 56.49 56.35 56.23 55.98 56.31 56.62 56.21 55.71 55.96 56.62 56.65 56.71 56.85 56.39 55.86 55.88 56.45 56.54 56.02 55.75 56.71 57.03 56.64 56.11 56.02 56.34 56.36 56.33 56.27 55.99 
35.01 34.97 35.04 35.48 35.73 35.75 36.12 36.54 36.64 36.41 36.61 36.92 36.82 36.74 36.64 36.68 36.90 37.45 37.95 38.15 38.19 38.34 38.66 38.87 38.98 39.06 39.16 39.32 39.58 39.93 40.36 40.83 41.31 41.78 42.19 42.55 42.85 43.11 43.33 43.52 43.70 43.88 44.09 44.31 44.56 44.83 45.10 45.38 45.67 45.96 46.27 46.59 46.92 47.27 47.63 48.00 48.39 48.78 49.16 49.53 49.88 50.21 50.51 50.79 51.02 51.23 51.43 51.63 51.89 52.24 52.74 53.38 54.14 54.95 55.70 56.29 56.61 56.67 56.49 56.19 55.86 55.57 55.37 55.27 55.28 55.39 55.60 55.90 56.21 56.53 56.85 57.11 57.21 57.11 56.87 56.86 57.02 57.01 56.90 56.96 56.96 56.90 56.89 56.87 56.89 56.66 56.56 56.51 56.72 57.02 56.63 56.55 56.66 56.67 56.96 56.92 56.66 56.56 56.52 56.39 56.31 56.32 56.27 56.08 55.93 55.89 55.96 55.87 56.03 56.06 56.21 56.28 55.98 55.81 56.05 55.94 55.48 55.34 55.89 56.49 56.65 57.02 56.93 56.16 55.49 55.83 56.30 56.28 55.80 55.57 55.96 56.19 55.98 55.73 55.88 56.11 56.11 56.08 56.16 56.10 
34.82 34.82 34.97 35.16 35.34 35.41 35.54 36.06 36.04 35.66 36.12 36.49 36.50 36.68 36.65 36.58 37.04 37.66 37.92 37.96 38.13 38.29 38.39 38.48 38.55 38.61 38.68 38.83 39.06 39.39 39.81 40.30 40.82 41.33 41.83 42.28 42.68 43.02 43.31 43.55 43.76 43.95 44.15 44.37 44.61 44.86 45.13 45.40 45.68 45.98 46.28 46.60 46.93 47.27 47.63 48.00 48.39 48.77 49.16 49.52 49.88 50.21 50.51 50.78 51.02 51.23 51.42 51.63 51.88 52.24 52.73 53.38 54.15 54.97 55.73 56.31 56.64 56.69 56.53 56.23 55.90 55.62 55.43 55.36 55.39 55.51 55.72 55.98 56.27 56.56 56.82 57.01 57.10 57.05 56.94 56.92 56.99 57.00 56.99 57.02 57.02 57.01 57.01 57.01 56.95 56.60 56.31 56.21 56.85 57.41 56.93 56.56 56.44 56.73 56.97 56.62 56.26 56.34 56.52 56.36 56.21 56.19 56.05 55.97 55.94 55.83 55.50 55.36 55.45 55.59 55.90 55.90 55.58 55.70 55.79 55.51 55.24 55.50 56.00 56.25 56.68 56.69 56.28 55.62 55.52 56.01 56.07 56.08 55.89 55.49 55.35 55.43 55.62 55.78 56.10 56.31 56.15 55.85 55.87 56.05 
34.21 34.45 34.50 34.43 34.86 35.21 35.38 35.81 35.78 35.64 36.05 35.96 36.16 36.47 36.46 36.84 37.41 37.78 37.75 37.74 37.89 37.96 38.04 38.11 38.15 38.19 38.25 38.36 38.55 38.84 39.23 39.70 40.22 40.78 41.33 41.88 42.38 42.83 43.22 43.54 43.80 44.02 44.24 44.45 44.68 44.92 45.18 45.45 45.73 46.01 46.32 46.63 46.95 47.29 47.65 48.01 48.39 48.78 49.16 49.52 49.87 50.20 50.51 50.78 51.02 51.23 51.42 51.62 51.87 52.22 52.72 53.37 54.15 54.97 55.73 56.32 56.65 56.71 56.54 56.24 55.92 55.65 55.49 55.43 55.48 55.62 55.82 56.07 56.33 56.58 56.79 56.94 57.01 56.99 56.95 56.93 56.95 56.97 56.98 57.01 57.03 57.04 57.06 57.07 57.01 56.78 56.55 56.41 56.76 57.06 57.08 56.62 56.51 56.82 56.68 56.14 55.94 56.27 56.52 56.34 56.30 56.29 56.24 56.21 56.20 56.00 55.68 55.55 55.43 55.44 55.60 55.46 55.47 55.74 55.74 55.54 55.47 55.81 55.81 56.01 56.58 56.48 55.95 55.94 56.36 56.27 55.90 55.96 56.05 55.72 55.44 55.60 55.82 55.81 56.08 56.65 56.49 56.01 55.81 55.91 
33.99 34.21 33.98 33.73 34.31 34.98 35.29 35.47 35.31 35.32 35.40 35.40 35.98 36.20 36.37 36.82 37.30 37.41 37.17 37.24 37.41 37.54 37.64 37.71 37.76 37.79 37.83 37.90 38.05 38.28 38.61 39.03 39.53 40.09 40.70 41.32 41.93 42.50 43.02 43.44 43.79 44.07 44.30 44.53 44.76 45.01 45.26 45.52 45.79 46.08 46.37 46.68 47.00 47.33 47.68 48.04 48.41 48.79 49.17 49.53 49.88 50.21 50.51 50.78 51.02 51.23 51.42 51.62 51.87 52.22 52.71 53.36 54.14 54.97 55.74 56.32 56.66 56.71 56.55 56.25 55.94 55.68 55.53 55.49 55.56 55.70 55.91 56.13 56.37 56.58 56.76 56.88 56.93 56.94 56.92 56.91 56.91 56.92 56.94 56.96 56.99 57.02 57.04 57.04 56.98 56.83 56.68 56.60 56.75 56.92 56.94 56.72 56.62 56.69 56.52 56.18 56.07 56.27 56.40 56.26 56.22 56.28 56.26 56.17 56.13 56.20 56.15 56.11 55.87 55.72 55.63 55.61 55.91 56.12 56.12 55.78 55.51 55.60 55.56 55.73 56.04 55.76 55.86 56.46 56.68 56.10 55.55 55.87 56.07 55.78 55.63 55.81 55.70 55.41 56.00 56.84 56.61 56.15 56.05 55.95 
33.83 34.19 34.05 33.81 34.27 34.78 35.18 35.30 35.16 35.07 34.99 35.09 35.58 35.89 36.16 36.43 36.69 36.50 36.46 36.68 36.90 37.08 37.20 37.30 37.35 37.38 37.40 37.45 37.54 37.71 37.96 38.31 38.76 39.30 39.92 40.60 41.31 42.02 42.66 43.22 43.66 44.02 44.31 44.57 44.82 45.07 45.33 45.59 45.87 46.15 46.45 46.75 47.07 47.39 47.74 48.09 48.46 48.83 49.20 49.56 49.90 50.22 50.52 50.79 51.03 51.23 51.42 51.61 51.86 52.21 52.70 53.35 54.13 54.96 55.73 56.33 56.65 56.71 56.55 56.25 55.94 55.69 55.56 55.53 55.61 55.76 55.96 56.18 56.39 56.58 56.73 56.83 56.88 56.89 56.88 56.87 56.87 56.88 56.89 56.91 56.94 56.96 56.98 56.98 56.93 56.84 56.74 56.69 56.76 56.84 56.85 56.75 56.68 56.64 56.51 56.33 56.28 56.37 56.36 56.06 55.97 56.00 56.02 55.85 56.02 56.20 56.28 56.43 56.40 56.06 55.72 55.88 56.21 56.25 56.20 55.73 55.22 55.23 55.40 55.72 55.59 55.32 55.82 56.37 56.27 55.55 55.42 55.99 55.98 55.70 55.81 55.79 55.34 55.19 56.03 56.66 56.29 55.97 55.87 55.72 
33.38 33.95 34.03 34.05 34.44 34.59 34.90 35.08 35.16 35.34 35.21 34.96 35.00 35.37 35.68 35.81 36.15 36.07 36.15 36.32 36.48 36.63 36.75 36.85 36.91 36.94 36.95 36.97 37.02 37.12 37.29 37.56 37.93 38.43 39.03 39.75 40.54 41.34 42.11 42.79 43.36 43.81 44.18 44.49 44.77 45.04 45.32 45.60 45.89 46.18 46.49 46.80 47.13 47.47 47.81 48.17 48.53 48.91 49.27 49.62 49.95 50.27 50.56 50.82 51.05 51.25 51.43 51.62 51.86 52.21 52.69 53.34 54.12 54.96 55.73 56.32 56.66 56.71 56.54 56.25 55.94 55.70 55.57 55.55 55.64 55.79 55.99 56.20 56.40 56.57 56.71 56.80 56.84 56.86 56.85 56.85 56.84 56.84 56.85 56.87 56.89 56.91 56.92 56.91 56.88 56.82 56.76 56.73 56.76 56.80 56.81 56.76 56.70 56.65 56.57 56.49 56.49 56.57 56.62 56.46 56.20 56.17 56.09 56.00 56.16 56.10 56.07 56.29 56.32 56.04 55.83 56.09 56.28 56.13 55.93 55.48 55.14 55.06 55.34 55.72 55.52 55.33 55.62 55.79 55.58 55.38 55.79 56.01 55.70 55.72 56.12 55.90 55.42 55.31 55.94 56.12 55.90 55.75 55.56 55.57 
33.53 33.98 33.91 34.14 34.41 34.39 34.57 34.74 34.97 35.23 35.06 34.71 34.89 35.34 35.20 35.35 35.91 35.97 36.13 36.07 36.09 36.17 36.28 36.38 36.44 36.48 36.48 36.48 36.49 36.54 36.64 36.82 37.12 37.53 38.10 38.81 39.62 40.50 41.35 42.15 42.81 43.37 43.81 44.19 44.52 44.84 45.14 45.46 45.77 46.10 46.43 46.77 47.12 47.48 47.86 48.23 48.61 48.99 49.36 49.70 50.03 50.34 50.62 50.87 51.09 51.29 51.46 51.64 51.88 52.21 52.69 53.33 54.12 54.95 55.73 56.33 56.65 56.71 56.54 56.24 55.94 55.70 55.58 55.56 55.65 55.81 56.00 56.21 56.40 56.57 56.69 56.77 56.82 56.83 56.83 56.83 56.82 56.82 56.82 56.83 56.84 56.86 56.86 56.85 56.83 56.79 56.75 56.74 56.76 56.78 56.78 56.76 56.72 56.68 56.64 56.60 56.62 56.66 56.68 56.56 56.37 56.26 56.17 56.11 56.14 56.10 56.08 56.18 56.20 56.05 55.95 56.06 56.14 55.95 55.85 55.63 55.49 55.37 55.34 55.38 55.41 55.44 55.37 55.24 55.30 55.63 56.04 55.83 55.48 55.87 56.17 56.00 55.76 55.82 55.90 55.79 55.81 55.90 55.92 56.02 
33.70 34.05 34.09 34.26 34.18 34.03 34.24 34.37 34.41 34.61 34.57 34.58 35.10 35.44 35.04 35.18 35.73 35.84 35.74 35.60 35.60 35.68 35.80 35.91 35.98 36.01 36.02 36.01 35.99 35.99 36.04 36.15 36.36 36.71 37.20 37.86 38.65 39.53 40.43 41.27 42.02 42.63 43.16 43.59 43.99 44.35 44.72 45.06 45.43 45.79 46.17 46.56 46.97 47.38 47.80 48.22 48.63 49.04 49.42 49.79 50.12 50.42 50.70 50.95 51.16 51.35 51.51 51.69 51.91 52.24 52.70 53.34 54.11 54.95 55.74 56.33 56.66 56.70 56.53 56.24 55.93 55.70 55.57 55.57 55.66 55.81 56.01 56.21 56.40 56.56 56.68 56.76 56.80 56.82 56.82 56.82 56.81 56.81 56.81 56.81 56.82 56.82 56.82 56.81 56.79 56.76 56.74 56.74 56.75 56.76 56.77 56.76 56.74 56.71 56.68 56.67 56.67 56.68 56.66 56.56 56.42 56.30 56.21 56.15 56.14 56.11 56.10 56.14 56.13 56.05 55.96 55.91 55.77 55.68 55.53 55.59 55.76 55.63 55.21 55.09 55.50 55.87 55.72 55.54 55.58 55.84 56.10 55.85 55.67 55.83 55.77 55.70 55.94 56.12 56.19 56.07 56.09 56.23 56.33 56.34 
33.50 33.70 34.02 34.21 33.97 33.87 34.00 34.00 34.05 34.36 34.43 34.50 34.94 35.29 35.13 35.13 35.42 35.27 34.88 34.92 35.04 35.20 35.36 35.48 35.56 35.59 35.60 35.58 35.55 35.53 35.54 35.59 35.74 36.00 36.42 36.99 37.72 38.54 39.40 40.24 40.99 41.66 42.21 42.70 43.13 43.56 43.96 44.37 44.77 45.20 45.62 46.09 46.55 47.05 47.53 48.03 48.51 48.97 49.40 49.79 50.14 50.46 50.75 51.00 51.22 51.41 51.59 51.76 51.98 52.29 52.75 53.37 54.14 54.97 55.75 56.35 56.67 56.72 56.53 56.23 55.93 55.69 55.57 55.57 55.66 55.81 56.01 56.21 56.40 56.56 56.68 56.75 56.80 56.81 56.82 56.82 56.81 56.80 56.80 56.80 56.80 56.80 56.79 56.78 56.76 56.74 56.73 56.73 56.74 56.76 56.77 56.77 56.75 56.73 56.71 56.69 56.68 56.66 56.62 56.53 56.42 56.31 56.22 56.17 56.14 56.12 56.11 56.12 56.10 56.04 55.97 55.91 55.81 55.54 55.40 55.64 55.79 55.62 55.30 55.26 56.03 56.35 56.02 55.76 55.66 55.51 55.60 55.66 55.70 55.67 55.48 55.91 56.29 56.45 56.53 56.29 56.09 55.98 55.88 55.66 
33.55 33.48 33.55 33.54 33.56 33.64 33.84 34.06 34.14 34.30 34.33 34.35 34.58 34.97 35.12 35.05 35.05 34.77 34.37 34.46 34.64 34.84 35.02 35.15 35.22 35.25 35.25 35.23 35.20 35.17 35.17 35.20 35.30 35.50 35.82 36.31 36.91 37.63 38.39 39.15 39.86 40.49 41.06 41.56 42.03 42.47 42.91 43.35 43.80 44.26 44.76 45.28 45.84 46.40 46.99 47.56 48.14 48.67 49.18 49.62 50.02 50.37 50.68 50.96 51.22 51.44 51.64 51.84 52.06 52.38 52.82 53.44 54.20 55.03 55.80 56.39 56.71 56.74 56.55 56.25 55.93 55.70 55.57 55.57 55.66 55.81 56.00 56.21 56.39 56.55 56.67 56.75 56.79 56.81 56.82 56.82 56.81 56.80 56.80 56.79 56.79 56.78 56.78 56.76 56.75 56.73 56.72 56.72 56.73 56.75 56.76 56.77 56.76 56.74 56.72 56.70 56.67 56.63 56.57 56.49 56.39 56.29 56.22 56.17 56.14 56.13 56.12 56.11 56.09 56.03 55.96 55.87 55.75 55.56 55.48 55.61 55.70 55.62 55.52 55.67 56.24 56.19 55.70 55.90 55.77 55.22 55.09 55.40 55.62 55.54 55.73 56.12 56.23 56.17 56.11 56.06 55.89 55.58 55.23 55.03 
33.57 33.54 33.37 33.20 33.55 33.71 34.01 34.23 34.13 34.08 34.18 34.52 34.42 34.54 34.68 34.63 34.57 34.40 34.17 34.34 34.48 34.66 34.84 34.96 35.01 35.02 35.01 34.98 34.96 34.94 34.94 34.97 35.06 35.21 35.47 35.83 36.32 36.88 37.50 38.13 38.75 39.31 39.83 40.32 40.78 41.23 41.67 42.13 42.59 43.09 43.61 44.19 44.80 45.45 46.10 46.78 47.43 48.07 48.64 49.17 49.61 50.03 50.40 50.75 51.07 51.36 51.62 51.87 52.13 52.46 52.93 53.53 54.30 55.12 55.89 56.47 56.78 56.81 56.61 56.29 55.97 55.71 55.59 55.58 55.67 55.82 56.01 56.20 56.39 56.55 56.67 56.75 56.79 56.81 56.82 56.82 56.81 56.80 56.80 56.79 56.78 56.78 56.77 56.75 56.73 56.72 56.71 56.72 56.73 56.75 56.76 56.77 56.76 56.75 56.72 56.69 56.66 56.60 56.53 56.45 56.36 56.27 56.20 56.16 56.14 56.13 56.13 56.11 56.08 56.01 55.93 55.83 55.72 55.59 55.53 55.58 55.63 55.60 55.57 55.64 55.77 55.69 55.98 56.60 56.22 55.33 55.02 55.40 55.50 55.59 55.99 56.07 55.90 55.86 55.97 56.31 56.17 55.70 55.36 55.17 
33.07 33.46 33.28 33.21 33.73 33.75 33.89 34.01 34.12 34.10 34.34 34.63 34.38 34.30 34.49 34.25 34.10 34.18 34.34 34.55 34.52 34.67 34.84 34.91 34.92 34.90 34.87 34.84 34.83 34.83 34.86 34.90 34.99 35.13 35.32 35.60 35.95 36.37 36.82 37.31 37.79 38.26 38.71 39.15 39.57 40.00 40.41 40.85 41.30 41.79 42.32 42.91 43.55 44.22 44.94 45.67 46.40 47.09 47.75 48.33 48.87 49.34 49.81 50.24 50.67 51.07 51.45 51.78 52.12 52.51 52.99 53.63 54.39 55.23 56.00 56.59 56.90 56.92 56.70 56.37 56.02 55.77 55.63 55.61 55.69 55.84 56.02 56.21 56.39 56.55 56.67 56.74 56.79 56.81 56.82 56.81 56.81 56.80 56.79 56.79 56.78 56.77 56.76 56.74 56.73 56.71 56.71 56.71 56.73 56.75 56.76 56.77 56.76 56.75 56.72 56.69 56.64 56.58 56.50 56.42 56.33 56.25 56.19 56.16 56.14 56.14 56.13 56.11 56.06 55.99 55.91 55.80 55.70 55.61 55.56 55.57 55.59 55.58 55.58 55.61 55.67 55.75 56.09 56.47 56.25 55.66 55.47 55.55 55.56 55.94 56.39 56.17 56.17 56.16 56.30 56.72 56.39 55.82 55.57 55.60 
32.97 33.29 33.00 33.24 33.80 33.65 33.47 33.56 33.84 33.90 33.97 34.12 33.94 34.09 34.09 33.78 33.79 34.18 34.63 34.76 34.62 34.90 34.98 34.96 34.90 34.84 34.80 34.78 34.79 34.82 34.87 34.95 35.05 35.18 35.35 35.56 35.80 36.08 36.40 36.73 37.10 37.45 37.83 38.19 38.57 38.93 39.32 39.70 40.12 40.56 41.06 41.61 42.23 42.90 43.61 44.35 45.09 45.83 46.52 47.16 47.75 48.31 48.85 49.41 49.95 50.50 51.01 51.49 51.93 52.40 52.95 53.63 54.43 55.28 56.08 56.69 57.01 57.04 56.82 56.47 56.13 55.85 55.70 55.67 55.74 55.87 56.05 56.23 56.41 56.56 56.67 56.75 56.79 56.81 56.82 56.82 56.81 56.80 56.79 56.78 56.77 56.77 56.75 56.74 56.72 56.71 56.71 56.71 56.73 56.75 56.76 56.77 56.76 56.75 56.72 56.68 56.63 56.57 56.49 56.40 56.31 56.24 56.18 56.15 56.14 56.14 56.13 56.10 56.05 55.97 55.88 55.78 55.69 55.61 55.57 55.57 55.58 55.58 55.59 55.62 55.69 55.82 56.08 56.31 56.29 56.14 55.92 56.04 56.33 56.51 56.34 56.24 56.36 56.22 56.24 56.44 56.41 56.19 55.99 56.19 
33.02 33.07 32.78 33.20 33.67 33.59 33.35 33.38 33.49 33.38 33.50 33.53 33.61 33.67 33.48 33.43 33.64 34.00 34.68 34.90 34.72 35.13 35.07 34.97 34.88 34.82 34.78 34.78 34.80 34.86 34.94 35.05 35.18 35.32 35.48 35.64 35.82 36.00 36.20 36.42 36.66 36.94 37.23 37.55 37.85 38.18 38.49 38.83 39.17 39.57 39.99 40.49 41.03 41.65 42.29 42.99 43.70 44.41 45.09 45.74 46.37 46.97 47.60 48.24 48.92 49.60 50.27 50.88 51.46 52.03 52.67 53.41 54.27 55.17 56.02 56.67 57.04 57.09 56.90 56.57 56.21 55.94 55.77 55.74 55.80 55.93 56.09 56.27 56.44 56.59 56.69 56.77 56.81 56.83 56.83 56.83 56.82 56.81 56.79 56.78 56.77 56.76 56.75 56.73 56.72 56.71 56.70 56.71 56.72 56.74 56.76 56.77 56.76 56.75 56.72 56.68 56.62 56.56 56.48 56.39 56.30 56.23 56.18 56.15 56.14 56.13 56.12 56.09 56.04 55.96 55.86 55.76 55.67 55.61 55.57 55.57 55.58 55.59 55.61 55.64 55.71 55.83 55.99 56.11 56.08 55.96 55.98 56.47 56.88 56.62 56.28 56.21 56.29 56.39 56.26 56.30 56.54 56.50 56.54 56.93 
32.60 32.65 32.63 32.86 33.28 33.28 33.06 33.35 33.51 33.30 33.26 33.25 33.26 33.21 33.14 33.37 33.62 33.83 34.35 34.40 34.30 34.56 34.78 34.82 34.80 34.78 34.78 34.80 34.85 34.93 35.04 35.18 35.33 35.49 35.65 35.79 35.91 36.03 36.16 36.30 36.48 36.69 36.93 37.19 37.46 37.72 37.99 38.26 38.56 38.87 39.24 39.64 40.11 40.61 41.17 41.76 42.39 43.02 43.66 44.28 44.90 45.51 46.18 46.88 47.64 48.43 49.20 49.94 50.62 51.32 52.03 52.85 53.77 54.75 55.65 56.39 56.82 56.96 56.82 56.53 56.20 55.93 55.80 55.77 55.85 55.99 56.16 56.34 56.50 56.63 56.74 56.80 56.84 56.86 56.86 56.85 56.84 56.82 56.81 56.79 56.77 56.76 56.75 56.73 56.72 56.70 56.70 56.71 56.72 56.74 56.76 56.76 56.76 56.74 56.72 56.68 56.62 56.55 56.47 56.38 56.30 56.23 56.18 56.15 56.14 56.13 56.12 56.09 56.02 55.94 55.84 55.74 55.66 55.60 55.58 55.57 55.58 55.60 55.63 55.66 55.72 55.80 55.88 55.92 55.89 55.84 55.93 56.30 56.67 56.61 56.52 56.29 56.38 56.64 56.52 56.48 56.48 56.35 56.57 57.05 
32.42 32.28 32.35 32.56 32.93 32.90 32.58 33.17 33.42 33.27 33.14 33.02 32.91 32.92 33.02 33.38 33.60 33.63 33.69 33.71 33.95 34.36 34.57 34.65 34.69 34.73 34.78 34.84 34.92 35.02 35.15 35.31 35.47 35.64 35.80 35.93 36.04 36.12 36.20 36.30 36.44 36.62 36.83 37.07 37.31 37.54 37.77 38.00 38.24 38.51 38.80 39.14 39.50 39.91 40.34 40.83 41.34 41.88 42.42 42.98 43.54 44.14 44.77 45.49 46.26 47.08 47.90 48.69 49.46 50.19 50.99 51.85 52.83 53.85 54.86 55.66 56.23 56.45 56.43 56.21 55.96 55.75 55.67 55.70 55.83 56.02 56.22 56.42 56.58 56.71 56.80 56.86 56.89 56.91 56.91 56.91 56.89 56.87 56.84 56.82 56.79 56.78 56.76 56.74 56.72 56.71 56.70 56.71 56.72 56.74 56.76 56.76 56.76 56.74 56.71 56.67 56.62 56.55 56.47 56.38 56.30 56.22 56.17 56.15 56.14 56.13 56.12 56.08 56.01 55.92 55.82 55.73 55.65 55.60 55.57 55.58 55.59 55.62 55.64 55.68 55.72 55.76 55.78 55.77 55.71 55.65 55.65 55.76 55.96 56.54 56.61 56.44 56.53 56.63 56.54 56.54 56.36 56.22 56.42 56.70 
32.27 31.86 32.04 32.35 32.80 32.89 33.02 33.27 33.08 33.01 33.10 33.01 32.78 32.81 33.07 33.29 33.27 33.07 32.99 32.99 33.24 33.99 34.33 34.43 34.55 34.68 34.79 34.89 35.00 35.12 35.26 35.42 35.59 35.76 35.91 36.04 36.13 36.21 36.27 36.36 36.48 36.65 36.85 37.08 37.30 37.53 37.73 37.94 38.16 38.39 38.64 38.91 39.20 39.51 39.86 40.23 40.64 41.06 41.52 41.98 42.49 43.01 43.60 44.24 44.96 45.72 46.51 47.28 48.03 48.78 49.55 50.43 51.40 52.47 53.50 54.44 55.08 55.48 55.56 55.50 55.35 55.26 55.28 55.43 55.67 55.96 56.24 56.48 56.66 56.78 56.86 56.91 56.94 56.96 56.98 56.98 56.97 56.94 56.92 56.88 56.85 56.82 56.80 56.77 56.75 56.72 56.72 56.72 56.73 56.75 56.76 56.77 56.77 56.75 56.72 56.68 56.62 56.55 56.47 56.38 56.29 56.22 56.17 56.15 56.14 56.13 56.11 56.08 56.01 55.91 55.81 55.71 55.64 55.59 55.58 55.58 55.60 55.63 55.66 55.68 55.70 55.71 55.70 55.65 55.56 55.45 55.36 55.32 55.41 56.08 56.10 56.25 56.50 56.44 56.47 56.46 56.21 56.07 56.19 56.50 
32.01 31.94 32.19 32.45 32.71 33.17 33.84 33.66 33.05 32.80 32.83 32.81 32.69 32.86 33.03 33.03 33.00 32.76 32.91 32.85 32.90 33.57 34.10 34.20 34.41 34.65 34.83 34.96 35.09 35.23 35.37 35.52 35.68 35.85 35.99 36.11 36.20 36.27 36.33 36.41 36.54 36.71 36.92 37.14 37.37 37.58 37.79 37.99 38.20 38.41 38.64 38.87 39.12 39.37 39.65 39.94 40.25 40.60 40.97 41.37 41.79 42.25 42.74 43.29 43.88 44.53 45.19 45.87 46.53 47.20 47.91 48.71 49.63 50.65 51.71 52.66 53.45 53.94 54.21 54.28 54.31 54.37 54.56 54.88 55.31 55.75 56.15 56.46 56.68 56.80 56.86 56.90 56.94 56.98 57.02 57.05 57.05 57.05 57.01 56.98 56.93 56.90 56.86 56.83 56.80 56.78 56.76 56.76 56.76 56.78 56.79 56.80 56.79 56.77 56.74 56.69 56.64 56.56 56.48 56.39 56.30 56.23 56.17 56.15 56.14 56.13 56.12 56.07 56.00 55.91 55.81 55.71 55.64 55.59 55.58 55.59 55.61 55.64 55.66 55.68 55.68 55.67 55.63 55.55 55.45 55.32 55.20 55.13 55.19 55.51 55.56 55.62 55.89 56.11 56.22 56.14 55.87 55.67 55.87 56.31 
31.82 32.06 32.42 32.64 32.58 33.01 33.57 33.58 32.87 32.25 32.20 32.45 32.69 33.02 32.95 33.05 33.11 32.99 33.13 33.30 33.50 33.87 34.16 34.05 34.31 34.66 34.88 35.02 35.17 35.32 35.47 35.61 35.76 35.91 36.05 36.16 36.24 36.31 36.37 36.45 36.58 36.76 36.97 37.20 37.43 37.66 37.87 38.07 38.28 38.49 38.71 38.93 39.16 39.39 39.62 39.86 40.13 40.41 40.73 41.08 41.45 41.83 42.24 42.66 43.12 43.61 44.13 44.64 45.17 45.69 46.28 46.93 47.72 48.63 49.61 50.57 51.38 52.01 52.40 52.65 52.84 53.10 53.49 54.04 54.68 55.35 55.91 56.33 56.57 56.69 56.73 56.75 56.79 56.86 56.95 57.03 57.09 57.12 57.11 57.08 57.04 57.00 56.96 56.92 56.89 56.86 56.84 56.83 56.83 56.84 56.85 56.85 56.84 56.81 56.78 56.73 56.67 56.59 56.50 56.41 56.32 56.24 56.19 56.16 56.15 56.14 56.13 56.08 56.01 55.91 55.81 55.71 55.64 55.60 55.59 55.60 55.62 55.65 55.66 55.67 55.66 55.63 55.57 55.48 55.36 55.23 55.11 55.04 55.05 55.17 55.23 55.33 55.69 55.93 55.71 55.64 55.70 55.79 56.06 56.30 
31.83 31.86 32.37 32.63 32.59 32.44 32.58 32.83 32.42 31.73 31.86 32.19 32.76 32.94 32.70 32.89 33.14 32.98 32.98 33.17 33.51 33.77 34.06 33.83 34.23 34.73 34.89 35.01 35.19 35.40 35.56 35.70 35.83 35.96 36.09 36.20 36.27 36.33 36.39 36.47 36.60 36.78 37.00 37.24 37.48 37.70 37.92 38.13 38.35 38.56 38.79 39.01 39.24 39.46 39.68 39.90 40.15 40.41 40.70 41.02 41.36 41.69 42.02 42.35 42.68 43.02 43.37 43.74 44.09 44.47 44.86 45.36 45.94 46.69 47.52 48.40 49.21 49.88 50.39 50.76 51.11 51.56 52.16 52.95 53.86 54.74 55.50 56.01 56.30 56.38 56.37 56.35 56.39 56.50 56.66 56.83 56.98 57.07 57.11 57.12 57.09 57.07 57.03 57.01 56.98 56.96 56.94 56.93 56.93 56.93 56.93 56.92 56.90 56.87 56.83 56.78 56.72 56.64 56.55 56.45 56.35 56.28 56.22 56.19 56.18 56.17 56.15 56.11 56.03 55.93 55.82 55.72 55.65 55.61 55.60 55.61 55.63 55.65 55.66 55.65 55.62 55.57 55.50 55.41 55.29 55.17 55.06 54.99 54.97 55.02 55.10 55.27 55.67 55.75 55.53 55.59 55.79 56.05 56.31 56.42 
31.77 31.69 32.03 32.95 33.45 32.63 32.25 32.53 32.22 31.98 31.90 32.20 32.76 32.78 32.17 32.28 32.71 32.84 32.89 32.94 33.09 33.33 33.60 33.60 34.17 34.76 34.71 34.80 35.11 35.42 35.62 35.75 35.87 36.00 36.14 36.24 36.31 36.36 36.41 36.48 36.61 36.79 37.01 37.25 37.49 37.73 37.95 38.17 38.39 38.61 38.84 39.08 39.31 39.54 39.75 39.98 40.22 40.48 40.77 41.08 41.40 41.72 42.00 42.26 42.50 42.72 42.95 43.17 43.40 43.61 43.86 44.14 44.55 45.06 45.74 46.46 47.22 47.87 48.43 48.89 49.37 49.95 50.76 51.76 52.90 54.01 54.92 55.54 55.81 55.84 55.73 55.64 55.66 55.81 56.05 56.34 56.58 56.78 56.90 56.96 56.98 56.99 57.00 57.01 57.02 57.02 57.02 57.01 57.02 57.01 57.00 56.98 56.96 56.92 56.89 56.84 56.78 56.70 56.62 56.51 56.42 56.33 56.28 56.24 56.23 56.21 56.19 56.14 56.06 55.95 55.84 55.74 55.67 55.63 55.62 55.62 55.64 55.65 55.64 55.62 55.58 55.51 55.43 55.33 55.23 55.12 55.02 54.96 54.93 54.95 55.02 55.18 55.42 55.53 55.54 55.53 55.54 55.81 56.29 56.51 
31.82 31.68 31.72 32.92 33.56 32.84 32.40 32.13 32.06 32.10 31.91 32.30 32.93 32.50 32.76 32.91 32.24 32.91 33.16 33.23 33.05 33.00 33.10 33.62 34.19 34.23 33.97 34.32 34.89 35.39 35.62 35.75 35.87 36.03 36.19 36.31 36.37 36.41 36.44 36.51 36.62 36.79 37.01 37.25 37.49 37.73 37.96 38.18 38.40 38.63 38.87 39.11 39.35 39.58 39.82 40.04 40.29 40.55 40.85 41.17 41.50 41.81 42.08 42.30 42.48 42.64 42.78 42.92 43.05 43.16 43.26 43.39 43.59 43.94 44.40 45.00 45.63 46.25 46.79 47.30 47.82 48.52 49.44 50.63 51.95 53.24 54.28 54.92 55.15 55.05 54.81 54.61 54.58 54.74 55.06 55.43 55.82 56.11 56.35 56.47 56.58 56.65 56.73 56.80 56.87 56.93 56.97 56.99 57.00 57.00 56.99 56.97 56.94 56.91 56.88 56.85 56.81 56.75 56.68 56.59 56.49 56.40 56.33 56.30 56.27 56.26 56.23 56.18 56.09 55.98 55.86 55.76 55.68 55.64 55.62 55.63 55.63 55.63 55.61 55.58 55.52 55.45 55.36 55.26 55.16 55.07 54.99 54.93 54.90 54.90 54.94 55.02 55.11 55.14 55.10 54.94 54.94 55.48 56.06 56.24 
31.66 31.82 31.83 32.17 32.24 32.04 31.94 31.67 32.25 32.21 32.04 32.36 32.41 32.62 33.47 34.35 33.50 33.99 33.92 33.19 33.64 33.01 32.85 33.33 33.93 33.92 33.74 33.95 34.62 35.26 35.48 35.62 35.78 36.01 36.24 36.39 36.46 36.48 36.50 36.54 36.65 36.80 37.01 37.25 37.49 37.73 37.96 38.18 38.41 38.64 38.88 39.12 39.37 39.61 39.84 40.08 40.33 40.61 40.91 41.24 41.58 41.90 42.17 42.39 42.54 42.68 42.78 42.88 42.96 43.00 43.02 43.04 43.12 43.29 43.62 44.05 44.59 45.12 45.64 46.12 46.69 47.40 48.42 49.68 51.14 52.54 53.63 54.27 54.39 54.13 53.71 53.35 53.22 53.35 53.69 54.17 54.62 55.04 55.34 55.58 55.74 55.92 56.08 56.26 56.42 56.57 56.67 56.74 56.77 56.79 56.78 56.77 56.74 56.74 56.73 56.74 56.75 56.73 56.69 56.61 56.52 56.43 56.36 56.31 56.29 56.27 56.24 56.19 56.10 55.99 55.87 55.76 55.68 55.63 55.61 55.61 55.60 55.59 55.57 55.53 55.46 55.39 55.30 55.20 55.11 55.03 54.96 54.91 54.87 54.86 54.86 54.86 54.84 54.76 54.65 54.71 54.89 55.13 55.34 55.52 
31.05 31.87 31.85 31.60 31.34 31.66 31.64 31.77 32.32 32.19 32.23 32.40 32.12 32.10 34.14 37.51 38.61 38.11 36.37 35.92 36.80 35.10 33.69 33.17 33.58 33.61 33.61 33.64 33.95 34.61 35.06 35.33 35.58 35.93 36.30 36.49 36.56 36.57 36.57 36.61 36.69 36.84 37.03 37.26 37.50 37.73 37.96 38.18 38.41 38.64 38.88 39.13 39.38 39.62 39.86 40.10 40.35 40.63 40.94 41.28 41.63 41.96 42.24 42.46 42.63 42.75 42.86 42.94 43.01 43.03 43.02 42.98 42.97 43.05 43.25 43.60 44.03 44.50 44.96 45.43 45.96 46.70 47.71 49.05 50.54 51.99 53.10 53.66 53.65 53.20 52.56 52.02 51.73 51.79 52.11 52.59 53.11 53.55 53.94 54.22 54.48 54.73 55.01 55.29 55.58 55.81 56.01 56.13 56.22 56.24 56.27 56.26 56.28 56.30 56.36 56.43 56.51 56.56 56.57 56.52 56.44 56.35 56.28 56.23 56.20 56.19 56.17 56.13 56.05 55.94 55.82 55.71 55.63 55.58 55.56 55.55 55.54 55.53 55.50 55.46 55.41 55.34 55.25 55.17 55.09 55.02 54.95 54.91 54.87 54.85 54.83 54.79 54.73 54.63 54.55 54.86 55.17 55.12 54.95 55.26 
31.29 32.78 32.35 31.53 31.32 31.36 31.02 31.45 31.44 31.28 32.57 35.27 36.50 38.26 41.89 44.05 43.68 42.27 40.36 41.37 40.70 38.87 36.62 35.36 34.27 33.92 33.52 33.57 33.94 34.36 34.74 35.03 35.30 35.79 36.35 36.56 36.63 36.64 36.66 36.69 36.77 36.89 37.07 37.29 37.52 37.75 37.98 38.20 38.42 38.65 38.89 39.14 39.38 39.63 39.87 40.11 40.36 40.64 40.95 41.30 41.65 41.99 42.27 42.51 42.68 42.82 42.93 43.03 43.10 43.13 43.11 43.06 43.01 43.05 43.19 43.46 43.84 44.27 44.69 45.12 45.64 46.33 47.36 48.67 50.20 51.65 52.71 53.20 53.03 52.39 51.55 50.77 50.35 50.25 50.51 50.93 51.41 51.86 52.23 52.55 52.85 53.18 53.54 53.94 54.31 54.66 54.92 55.13 55.25 55.33 55.37 55.41 55.46 55.55 55.68 55.86 56.02 56.17 56.23 56.24 56.17 56.09 56.00 55.95 55.94 55.95 55.96 55.95 55.89 55.81 55.70 55.60 55.52 55.46 55.44 55.43 55.43 55.42 55.41 55.39 55.35 55.30 55.24 55.17 55.10 55.03 54.98 54.94 54.90 54.88 54.87 54.85 54.83 54.79 54.78 54.97 55.26 55.27 55.16 55.51 
33.27 34.85 33.67 31.66 31.08 31.30 32.40 32.13 30.92 30.68 34.04 38.86 40.24 41.33 43.04 45.44 46.18 44.74 44.48 44.63 43.96 42.80 41.22 38.98 36.86 35.08 33.75 33.35 33.60 34.03 34.42 34.75 35.01 35.56 36.32 36.47 36.57 36.66 36.72 36.79 36.86 36.98 37.15 37.35 37.57 37.80 38.02 38.23 38.45 38.67 38.91 39.16 39.41 39.65 39.88 40.12 40.37 40.64 40.95 41.30 41.65 41.99 42.29 42.53 42.71 42.86 42.99 43.10 43.19 43.22 43.22 43.17 43.13 43.14 43.27 43.51 43.86 44.26 44.67 45.07 45.56 46.25 47.23 48.55 50.05 51.47 52.51 52.89 52.62 51.80 50.76 49.83 49.19 48.98 49.07 49.40 49.78 50.16 50.48 50.78 51.08 51.44 51.84 52.30 52.76 53.16 53.51 53.75 53.94 54.05 54.14 54.22 54.33 54.50 54.73 55.00 55.28 55.51 55.66 55.69 55.65 55.55 55.48 55.43 55.44 55.49 55.57 55.61 55.61 55.56 55.49 55.40 55.32 55.28 55.26 55.25 55.26 55.27 55.28 55.29 55.29 55.27 55.24 55.20 55.14 55.09 55.05 55.01 54.99 54.97 54.98 55.00 55.05 55.13 55.23 55.14 55.15 55.32 55.61 55.74 
35.21 36.39 34.81 32.37 32.95 36.56 37.29 34.50 31.70 32.83 34.22 38.24 40.73 40.29 39.54 41.15 42.93 44.11 45.55 45.01 45.04 45.25 43.93 41.36 38.86 36.83 35.44 33.72 33.53 33.56 34.02 34.51 35.21 35.38 35.67 35.98 36.30 36.59 36.77 36.88 36.98 37.09 37.25 37.44 37.66 37.88 38.10 38.30 38.51 38.73 38.96 39.21 39.45 39.69 39.91 40.14 40.38 40.65 40.95 41.29 41.65 41.99 42.29 42.53 42.72 42.88 43.01 43.14 43.23 43.29 43.29 43.26 43.23 43.25 43.37 43.62 43.95 44.35 44.74 45.14 45.61 46.28 47.26 48.55 50.04 51.45 52.42 52.78 52.38 51.46 50.29 49.18 48.43 48.03 48.00 48.17 48.44 48.69 48.93 49.15 49.42 49.74 50.16 50.62 51.10 51.54 51.91 52.20 52.41 52.57 52.70 52.83 53.00 53.24 53.57 53.95 54.33 54.65 54.84 54.91 54.86 54.77 54.67 54.65 54.70 54.82 54.97 55.12 55.19 55.22 55.18 55.12 55.06 55.02 55.01 55.01 55.04 55.08 55.12 55.18 55.22 55.25 55.26 55.25 55.22 55.19 55.16 55.14 55.13 55.13 55.15 55.19 55.26 55.37 55.51 55.31 55.11 55.40 55.70 55.51 
35.65 35.73 34.45 33.17 36.25 41.13 40.56 36.71 33.62 34.73 37.10 40.08 42.98 41.58 39.56 39.48 39.86 42.41 44.40 42.68 42.63 43.43 43.10 42.16 40.49 39.86 38.85 35.54 33.26 33.28 33.47 34.36 35.25 35.03 34.90 35.33 35.91 36.46 36.77 36.97 37.10 37.22 37.36 37.54 37.76 38.00 38.21 38.40 38.59 38.81 39.04 39.28 39.53 39.75 39.97 40.18 40.41 40.66 40.96 41.29 41.64 41.98 42.28 42.52 42.72 42.88 43.02 43.15 43.25 43.31 43.33 43.31 43.29 43.32 43.45 43.70 44.05 44.43 44.84 45.23 45.70 46.37 47.33 48.62 50.09 51.47 52.46 52.73 52.33 51.32 50.06 48.89 47.99 47.50 47.31 47.36 47.48 47.62 47.74 47.89 48.06 48.35 48.70 49.13 49.57 50.00 50.36 50.67 50.90 51.09 51.25 51.44 51.66 51.98 52.37 52.83 53.28 53.66 53.89 53.95 53.90 53.78 53.68 53.67 53.77 53.98 54.25 54.50 54.70 54.80 54.83 54.80 54.76 54.73 54.72 54.74 54.78 54.85 54.94 55.04 55.14 55.22 55.28 55.31 55.32 55.32 55.32 55.33 55.36 55.39 55.42 55.44 55.44 55.40 55.33 55.25 55.15 55.48 55.82 56.64 
36.52 35.98 35.21 34.02 35.67 41.17 42.35 39.59 41.72 44.11 43.83 46.70 46.66 45.03 44.58 44.40 42.99 44.48 43.51 41.47 40.28 40.09 41.38 42.52 41.77 42.27 41.02 37.02 34.09 34.76 35.09 35.09 35.02 34.40 34.18 34.73 35.49 36.26 36.69 37.00 37.18 37.30 37.45 37.63 37.88 38.14 38.36 38.53 38.71 38.91 39.14 39.40 39.64 39.86 40.05 40.24 40.45 40.69 40.98 41.30 41.64 41.97 42.27 42.52 42.71 42.88 43.02 43.15 43.25 43.32 43.34 43.33 43.32 43.36 43.50 43.75 44.10 44.50 44.89 45.30 45.78 46.44 47.42 48.69 50.16 51.54 52.48 52.79 52.33 51.33 50.04 48.80 47.86 47.26 47.00 46.92 46.94 46.97 47.00 47.05 47.17 47.36 47.65 47.99 48.38 48.74 49.09 49.37 49.62 49.82 50.02 50.23 50.51 50.85 51.31 51.81 52.30 52.69 52.92 52.97 52.87 52.72 52.61 52.61 52.79 53.09 53.48 53.86 54.17 54.37 54.46 54.48 54.45 54.43 54.43 54.45 54.52 54.61 54.74 54.89 55.04 55.18 55.29 55.37 55.43 55.48 55.54 55.62 55.72 55.81 55.88 55.87 55.77 55.56 55.27 55.15 55.12 55.69 57.96 61.61 
39.20 39.29 38.15 35.78 35.18 40.26 42.95 43.55 47.47 47.18 48.10 48.99 48.03 47.57 48.63 48.25 46.79 46.29 44.60 43.63 41.13 39.51 41.00 41.62 41.24 42.38 41.74 38.82 39.13 39.66 38.19 36.24 34.87 34.47 34.17 34.26 35.01 35.62 36.41 36.98 37.20 37.32 37.45 37.65 37.96 38.30 38.52 38.67 38.81 39.01 39.26 39.54 39.79 40.00 40.17 40.34 40.52 40.74 41.00 41.31 41.64 41.97 42.26 42.51 42.71 42.87 43.02 43.15 43.25 43.32 43.34 43.33 43.32 43.37 43.52 43.77 44.12 44.52 44.93 45.33 45.82 46.50 47.46 48.75 50.21 51.58 52.55 52.82 52.40 51.38 50.10 48.86 47.88 47.25 46.92 46.78 46.73 46.69 46.65 46.64 46.68 46.82 47.02 47.29 47.59 47.90 48.18 48.46 48.69 48.91 49.12 49.36 49.64 50.04 50.49 51.02 51.51 51.89 52.08 52.08 51.93 51.75 51.61 51.65 51.86 52.27 52.77 53.28 53.71 54.00 54.15 54.20 54.19 54.17 54.17 54.20 54.27 54.39 54.54 54.73 54.93 55.11 55.28 55.41 55.54 55.68 55.84 56.03 56.25 56.46 56.59 56.60 56.43 56.12 55.81 55.42 55.00 55.39 62.26 65.89 
42.37 41.94 39.49 36.85 35.37 39.82 42.68 44.72 46.01 45.93 46.74 48.16 48.75 48.84 49.27 47.64 45.63 46.37 47.57 46.82 43.80 41.01 41.04 40.10 39.51 40.44 40.19 41.12 44.07 42.68 39.04 34.77 33.78 34.62 34.51 34.61 35.05 35.38 36.30 37.02 37.10 37.17 37.31 37.54 37.95 38.44 38.66 38.75 38.86 39.07 39.38 39.71 39.97 40.16 40.31 40.45 40.61 40.80 41.05 41.34 41.66 41.98 42.26 42.51 42.71 42.87 43.02 43.15 43.25 43.31 43.33 43.32 43.32 43.37 43.52 43.78 44.13 44.53 44.92 45.34 45.84 46.51 47.50 48.78 50.24 51.61 52.55 52.87 52.43 51.46 50.19 48.95 47.98 47.33 46.97 46.81 46.71 46.64 46.57 46.52 46.53 46.60 46.75 46.95 47.19 47.43 47.68 47.92 48.15 48.37 48.60 48.84 49.15 49.53 50.01 50.51 50.98 51.32 51.46 51.41 51.21 50.97 50.84 50.86 51.15 51.61 52.22 52.83 53.36 53.73 53.93 54.00 54.00 53.98 53.98 54.00 54.08 54.20 54.37 54.58 54.80 55.03 55.24 55.45 55.66 55.91 56.21 56.57 56.98 57.36 57.65 57.70 57.45 56.86 56.15 55.87 55.05 56.40 66.15 67.21 
42.72 40.78 38.04 36.09 35.72 39.70 42.37 42.58 42.16 42.61 42.41 43.49 46.97 48.56 48.07 45.33 43.09 46.22 49.70 48.31 45.30 42.44 40.51 38.88 39.18 38.86 37.91 39.62 42.45 40.04 35.05 35.06 34.23 34.14 34.44 34.96 35.43 35.55 36.26 36.95 36.67 36.74 36.95 37.23 37.84 38.57 38.71 38.71 38.79 39.05 39.44 39.88 40.17 40.34 40.45 40.57 40.71 40.89 41.12 41.40 41.70 42.00 42.28 42.52 42.72 42.89 43.03 43.16 43.26 43.31 43.33 43.32 43.31 43.37 43.51 43.77 44.12 44.51 44.92 45.34 45.84 46.54 47.51 48.80 50.25 51.61 52.57 52.86 52.47 51.50 50.25 49.05 48.07 47.43 47.07 46.88 46.79 46.70 46.63 46.57 46.56 46.61 46.72 46.87 47.06 47.26 47.48 47.70 47.93 48.15 48.38 48.64 48.94 49.32 49.78 50.26 50.70 50.99 51.09 50.98 50.73 50.47 50.30 50.36 50.65 51.20 51.86 52.55 53.15 53.57 53.81 53.90 53.89 53.87 53.85 53.87 53.94 54.06 54.23 54.45 54.69 54.94 55.20 55.46 55.77 56.16 56.64 57.23 57.88 58.53 59.02 59.26 59.01 58.17 56.77 56.54 55.42 57.68 62.17 61.99 
41.55 38.33 36.66 36.51 37.41 40.37 41.63 40.16 39.86 40.38 37.19 39.16 40.06 43.07 42.47 38.57 35.78 42.12 48.07 48.04 45.58 41.96 38.29 38.20 39.92 39.77 38.38 38.74 39.61 37.59 36.74 36.18 33.96 33.84 34.06 34.64 34.98 35.02 35.41 35.70 35.72 35.96 36.22 36.77 37.83 38.46 38.51 38.46 38.54 38.89 39.41 40.04 40.34 40.47 40.57 40.68 40.82 40.99 41.21 41.47 41.76 42.05 42.32 42.56 42.75 42.92 43.06 43.18 43.27 43.32 43.33 43.32 43.31 43.36 43.51 43.77 44.11 44.51 44.91 45.33 45.84 46.53 47.53 48.80 50.26 51.61 52.54 52.87 52.46 51.52 50.30 49.09 48.14 47.50 47.14 46.97 46.87 46.80 46.72 46.67 46.66 46.70 46.79 46.92 47.08 47.26 47.46 47.68 47.90 48.13 48.36 48.62 48.92 49.30 49.74 50.20 50.60 50.87 50.92 50.78 50.50 50.20 50.04 50.08 50.41 50.97 51.69 52.42 53.05 53.51 53.76 53.86 53.86 53.82 53.79 53.80 53.86 53.97 54.13 54.34 54.58 54.84 55.13 55.46 55.86 56.39 57.09 57.92 58.88 59.82 60.63 61.14 61.20 60.68 59.49 57.27 56.17 56.45 56.89 56.66 
37.51 36.47 37.57 38.10 39.17 41.41 42.73 41.19 39.34 38.50 36.15 35.90 37.03 37.43 36.47 32.84 30.71 34.44 39.58 42.94 41.99 38.89 36.64 38.69 40.02 38.85 37.86 38.71 39.67 40.92 42.13 39.30 35.13 33.79 33.80 34.15 34.11 33.98 34.38 34.87 35.12 35.43 35.98 36.88 37.56 37.72 37.98 38.03 38.14 38.64 39.21 40.12 40.37 40.46 40.57 40.74 40.91 41.09 41.30 41.56 41.85 42.14 42.40 42.63 42.82 42.98 43.11 43.22 43.31 43.35 43.35 43.33 43.32 43.37 43.51 43.76 44.11 44.49 44.90 45.32 45.83 46.54 47.53 48.82 50.25 51.59 52.54 52.83 52.46 51.52 50.31 49.13 48.17 47.54 47.18 47.01 46.93 46.86 46.80 46.76 46.75 46.79 46.88 47.00 47.16 47.33 47.53 47.74 47.97 48.19 48.43 48.69 49.00 49.37 49.80 50.24 50.63 50.85 50.89 50.72 50.43 50.13 49.94 50.00 50.32 50.91 51.64 52.39 53.05 53.51 53.77 53.87 53.86 53.82 53.78 53.78 53.83 53.92 54.07 54.26 54.48 54.74 55.04 55.41 55.90 56.57 57.46 58.57 59.80 61.05 62.13 62.88 63.14 62.84 61.73 58.05 56.37 56.81 57.09 57.13 
32.23 34.74 37.21 38.06 38.34 39.58 41.89 40.87 38.59 37.94 38.74 39.37 38.38 37.28 36.25 33.02 31.90 32.25 30.69 32.36 32.37 33.52 36.25 39.66 39.02 37.07 36.35 37.96 38.26 40.20 41.09 37.19 33.87 33.67 33.87 34.25 33.80 33.76 34.32 34.75 34.90 35.04 35.71 36.73 36.93 37.01 37.59 37.79 37.91 38.40 38.94 39.73 40.09 40.20 40.43 40.72 40.96 41.16 41.39 41.66 41.96 42.26 42.52 42.73 42.92 43.06 43.19 43.29 43.36 43.40 43.39 43.35 43.34 43.37 43.51 43.76 44.10 44.49 44.88 45.31 45.83 46.54 47.54 48.81 50.25 51.58 52.50 52.82 52.43 51.52 50.32 49.14 48.20 47.55 47.20 47.03 46.95 46.90 46.84 46.81 46.81 46.86 46.95 47.07 47.22 47.40 47.60 47.82 48.04 48.28 48.51 48.77 49.08 49.45 49.87 50.31 50.68 50.91 50.92 50.75 50.45 50.14 49.96 50.01 50.35 50.92 51.66 52.42 53.07 53.54 53.80 53.90 53.89 53.84 53.80 53.79 53.82 53.90 54.03 54.19 54.39 54.63 54.92 55.30 55.84 56.61 57.68 59.00 60.49 61.96 63.19 63.94 64.01 63.25 61.83 57.96 56.38 56.96 57.35 57.42 
33.39 34.50 35.21 36.60 36.30 37.94 40.83 40.36 39.73 41.49 42.11 40.76 38.49 35.96 33.38 30.52 31.61 31.96 31.77 32.21 32.45 33.30 33.98 37.13 38.67 37.71 36.44 36.87 36.15 36.70 35.59 32.63 32.63 32.93 33.67 34.03 33.60 33.98 34.41 34.55 34.67 34.62 35.14 35.82 36.20 36.78 37.20 37.44 37.97 38.35 38.66 39.42 39.75 39.74 40.13 40.64 40.92 41.15 41.43 41.75 42.08 42.40 42.66 42.87 43.04 43.18 43.30 43.39 43.45 43.47 43.45 43.41 43.37 43.40 43.53 43.77 44.10 44.47 44.88 45.30 45.82 46.55 47.54 48.82 50.24 51.55 52.48 52.77 52.41 51.50 50.31 49.15 48.19 47.56 47.20 47.03 46.96 46.90 46.86 46.83 46.84 46.89 46.98 47.11 47.27 47.45 47.65 47.87 48.10 48.33 48.57 48.83 49.14 49.51 49.94 50.37 50.74 50.95 50.98 50.79 50.50 50.19 50.01 50.07 50.39 50.97 51.70 52.45 53.11 53.57 53.83 53.92 53.91 53.87 53.82 53.81 53.83 53.90 54.00 54.13 54.30 54.50 54.76 55.12 55.67 56.48 57.64 59.14 60.79 62.36 63.55 64.06 63.53 61.55 59.36 56.81 56.71 57.09 57.33 57.25 
35.09 34.07 34.42 36.14 36.06 40.28 43.49 42.45 43.47 44.86 43.18 40.59 36.57 32.28 32.56 31.92 32.07 32.21 32.21 32.26 31.92 33.25 32.41 32.48 34.98 36.36 35.82 35.10 36.15 36.01 34.09 32.44 32.26 32.47 33.24 33.33 33.08 33.86 34.09 34.30 34.61 34.81 35.06 35.40 36.17 36.83 36.86 37.36 38.31 38.39 38.30 39.15 39.43 39.10 39.72 40.45 40.71 40.99 41.37 41.78 42.18 42.54 42.82 43.01 43.16 43.30 43.42 43.50 43.56 43.58 43.55 43.49 43.44 43.44 43.56 43.78 44.10 44.48 44.87 45.30 45.83 46.54 47.55 48.81 50.23 51.54 52.43 52.75 52.36 51.47 50.30 49.13 48.20 47.55 47.20 47.03 46.95 46.90 46.86 46.84 46.85 46.90 46.99 47.13 47.29 47.47 47.67 47.89 48.12 48.36 48.60 48.86 49.17 49.54 49.97 50.40 50.76 50.99 51.00 50.84 50.54 50.24 50.07 50.11 50.44 51.01 51.73 52.48 53.12 53.59 53.85 53.95 53.94 53.89 53.84 53.83 53.84 53.89 53.97 54.07 54.19 54.35 54.55 54.86 55.36 56.15 57.32 58.91 60.62 62.14 63.10 63.18 61.90 58.69 56.47 56.37 56.81 57.31 57.42 57.20 
34.41 34.50 34.82 35.13 33.44 43.84 46.13 44.23 42.71 40.85 40.41 37.65 32.88 32.67 32.67 32.52 32.55 32.60 32.62 32.68 32.95 34.28 33.18 33.36 35.64 37.52 35.38 34.90 35.47 35.71 34.56 32.87 32.49 32.60 32.92 32.79 32.97 33.68 33.90 34.39 34.96 35.14 35.19 35.76 36.74 37.07 36.73 37.03 37.72 37.74 38.05 38.80 38.91 38.84 39.38 39.83 40.07 40.60 41.19 41.72 42.21 42.64 42.93 43.08 43.22 43.39 43.51 43.61 43.68 43.71 43.68 43.61 43.53 43.52 43.60 43.81 44.12 44.49 44.89 45.32 45.84 46.57 47.55 48.82 50.22 51.51 52.42 52.69 52.34 51.44 50.28 49.13 48.18 47.55 47.19 47.02 46.95 46.90 46.86 46.84 46.84 46.90 46.99 47.13 47.29 47.47 47.68 47.90 48.13 48.36 48.60 48.87 49.18 49.56 49.98 50.41 50.78 50.99 51.02 50.85 50.57 50.27 50.10 50.15 50.47 51.03 51.75 52.48 53.13 53.59 53.86 53.95 53.95 53.90 53.85 53.83 53.84 53.87 53.92 53.98 54.06 54.16 54.32 54.56 54.98 55.67 56.72 58.38 59.98 61.25 61.66 61.18 57.40 55.52 55.52 55.85 56.67 57.15 57.05 57.27 
34.39 34.70 35.22 36.12 36.54 45.21 45.43 40.66 34.91 33.63 34.29 32.59 32.77 32.84 32.91 32.95 33.00 33.02 32.98 32.91 32.92 33.22 31.99 32.15 39.39 39.33 37.68 35.53 35.13 36.62 36.06 33.50 32.19 32.22 32.43 32.66 33.00 33.56 33.85 34.54 35.22 35.24 34.95 35.36 36.05 36.33 36.45 36.48 36.84 37.20 37.92 38.48 38.59 38.84 39.18 39.39 39.50 40.25 41.00 41.55 42.08 42.62 42.92 42.99 43.12 43.37 43.52 43.65 43.77 43.85 43.85 43.77 43.67 43.60 43.66 43.85 44.15 44.52 44.92 45.36 45.89 46.59 47.59 48.83 50.23 51.51 52.39 52.70 52.32 51.43 50.27 49.11 48.19 47.54 47.19 47.02 46.94 46.90 46.86 46.83 46.84 46.89 46.99 47.12 47.29 47.47 47.68 47.90 48.13 48.36 48.60 48.87 49.18 49.56 49.98 50.41 50.77 50.99 51.01 50.85 50.57 50.28 50.11 50.16 50.48 51.03 51.74 52.48 53.12 53.59 53.85 53.95 53.95 53.90 53.85 53.82 53.81 53.82 53.83 53.86 53.90 53.97 54.07 54.28 54.65 55.25 56.03 57.84 59.06 59.82 58.93 57.51 55.38 55.73 55.61 55.91 56.84 56.65 56.62 57.23 
34.09 34.69 35.25 37.60 41.47 41.86 39.83 34.46 30.58 29.56 32.06 32.47 32.77 33.00 33.20 33.37 33.48 33.50 33.37 33.04 32.61 33.70 34.92 35.60 39.11 40.22 39.85 36.65 36.76 39.59 38.37 34.61 32.26 32.06 32.28 32.33 32.64 33.49 34.04 34.40 35.00 35.01 34.76 34.96 35.04 35.55 36.11 36.43 36.91 37.37 37.90 38.06 38.21 38.33 38.90 39.17 39.44 40.13 40.79 41.16 41.67 42.32 42.64 42.63 42.77 43.17 43.36 43.57 43.80 43.98 44.04 43.95 43.80 43.70 43.71 43.89 44.20 44.58 45.00 45.44 45.96 46.67 47.63 48.89 50.27 51.56 52.46 52.74 52.37 51.46 50.29 49.13 48.18 47.55 47.19 47.02 46.94 46.90 46.86 46.84 46.84 46.89 46.99 47.12 47.28 47.47 47.67 47.89 48.12 48.35 48.60 48.86 49.18 49.55 49.97 50.40 50.76 50.97 51.00 50.84 50.56 50.28 50.11 50.17 50.47 51.03 51.73 52.46 53.11 53.57 53.85 53.95 53.94 53.89 53.84 53.80 53.77 53.74 53.72 53.70 53.73 53.77 53.88 54.08 54.51 55.29 55.76 57.92 58.21 58.46 56.17 54.19 55.06 55.68 55.72 55.97 56.37 56.39 56.47 56.72 
36.31 37.52 42.19 42.41 39.86 38.31 35.30 31.35 31.09 31.06 31.93 32.46 32.85 33.19 33.52 33.83 34.07 34.14 33.94 33.28 30.77 34.05 38.38 39.88 39.23 42.37 41.64 37.80 38.49 41.56 39.56 35.08 32.29 32.18 32.05 31.82 32.22 33.59 34.04 34.02 34.25 34.61 35.07 35.23 35.16 35.42 35.73 36.09 36.75 37.19 37.48 37.69 37.89 38.19 38.78 39.39 39.71 39.98 40.08 40.28 40.96 41.34 41.70 42.08 42.25 42.48 42.94 43.30 43.71 44.06 44.20 44.10 43.90 43.74 43.74 43.92 44.26 44.67 45.11 45.57 46.09 46.76 47.73 48.97 50.39 51.71 52.64 52.94 52.54 51.59 50.38 49.18 48.23 47.57 47.21 47.03 46.95 46.91 46.87 46.84 46.85 46.89 46.99 47.12 47.28 47.46 47.67 47.89 48.11 48.35 48.59 48.86 49.17 49.54 49.97 50.39 50.74 50.96 50.98 50.82 50.55 50.27 50.11 50.15 50.47 51.01 51.71 52.44 53.08 53.57 53.84 53.95 53.94 53.87 53.81 53.76 53.71 53.65 53.58 53.53 53.54 53.62 53.76 54.01 54.51 55.90 58.45 58.99 57.96 55.71 55.05 54.23 54.87 55.18 55.20 55.31 55.59 56.03 56.11 55.78 
37.23 38.88 43.28 41.35 37.53 34.72 32.83 30.80 31.36 31.66 32.15 32.59 32.98 33.39 33.86 34.37 34.81 35.05 34.99 35.36 38.39 41.24 43.34 40.92 40.75 43.18 41.37 37.31 38.06 40.50 37.87 33.06 31.64 31.91 31.78 31.61 32.34 33.34 33.69 33.56 33.56 34.14 35.25 35.37 35.18 35.20 35.33 35.74 36.18 36.58 37.18 37.58 37.88 38.28 38.76 39.20 39.59 39.80 39.56 39.62 40.17 40.16 40.44 41.32 41.62 42.15 42.63 42.93 43.48 44.02 44.28 44.15 43.89 43.70 43.67 43.89 44.30 44.77 45.26 45.74 46.24 46.88 47.81 49.11 50.59 52.02 53.03 53.35 52.91 51.87 50.55 49.30 48.29 47.63 47.25 47.07 46.99 46.94 46.89 46.86 46.86 46.90 46.99 47.11 47.27 47.46 47.66 47.88 48.11 48.34 48.58 48.85 49.16 49.54 49.96 50.38 50.74 50.94 50.97 50.81 50.54 50.27 50.10 50.16 50.46 51.00 51.69 52.42 53.08 53.56 53.85 53.95 53.92 53.84 53.77 53.71 53.66 53.57 53.45 53.35 53.38 53.54 53.79 54.15 54.54 56.51 59.42 60.29 58.71 55.33 54.10 54.39 54.61 54.80 55.09 55.37 55.49 55.79 55.55 55.24 
36.13 37.04 40.86 39.64 36.11 34.48 33.83 32.92 31.90 32.06 32.42 32.75 33.10 33.54 34.15 34.98 35.75 36.26 35.59 34.80 40.94 43.70 44.22 43.84 43.20 42.24 39.26 38.11 38.06 39.30 36.98 33.10 31.61 31.73 31.65 31.71 32.40 32.94 33.23 33.53 33.54 34.16 34.91 34.89 34.94 35.21 35.32 35.81 35.96 36.19 37.04 37.63 37.52 37.72 38.07 38.27 38.66 39.41 39.68 39.95 40.36 40.17 40.47 41.02 41.18 41.97 42.36 42.35 42.98 43.67 44.09 43.94 43.70 43.50 43.48 43.79 44.32 44.85 45.40 45.93 46.41 46.94 47.88 49.25 50.90 52.50 53.69 54.07 53.54 52.31 50.84 49.46 48.42 47.71 47.32 47.14 47.05 46.99 46.93 46.89 46.87 46.91 46.99 47.12 47.27 47.46 47.66 47.88 48.11 48.35 48.59 48.85 49.17 49.54 49.96 50.39 50.74 50.96 50.98 50.83 50.56 50.28 50.12 50.16 50.46 50.99 51.68 52.41 53.08 53.58 53.88 53.97 53.91 53.80 53.72 53.68 53.64 53.56 53.37 53.22 53.30 53.59 53.95 54.60 54.63 56.82 59.11 60.40 58.56 55.42 54.57 54.15 54.14 54.56 54.97 55.39 55.55 55.72 55.46 55.20 
38.30 38.56 39.18 37.26 36.00 36.01 35.74 34.71 31.25 32.27 32.72 32.89 33.13 33.51 34.23 35.66 36.96 38.64 36.32 39.92 43.32 44.98 45.66 45.84 44.60 42.52 39.69 37.82 39.10 39.91 37.83 33.75 31.29 31.60 31.61 31.73 32.27 32.20 32.33 33.08 33.63 34.21 34.22 34.22 34.84 35.03 35.33 35.83 35.80 35.86 37.05 37.45 37.15 37.20 37.52 37.93 38.31 38.71 38.98 39.49 39.79 40.08 40.78 41.15 40.87 41.27 41.72 41.82 42.01 42.50 43.15 43.33 43.30 43.18 43.14 43.60 44.30 44.85 45.45 46.07 46.52 46.86 47.83 49.39 51.26 53.16 54.64 55.13 54.42 52.88 51.12 49.64 48.52 47.81 47.41 47.23 47.14 47.06 46.99 46.93 46.90 46.93 47.00 47.12 47.28 47.46 47.67 47.89 48.12 48.36 48.61 48.87 49.19 49.56 49.99 50.43 50.80 51.03 51.06 50.90 50.63 50.35 50.17 50.21 50.48 51.00 51.67 52.41 53.10 53.62 53.94 54.01 53.90 53.74 53.65 53.66 53.71 53.69 53.47 53.21 53.38 53.83 54.02 54.69 57.18 59.18 59.63 58.90 56.15 54.64 54.56 54.04 54.18 54.25 54.37 54.92 55.28 55.51 55.37 55.22 
42.98 41.41 38.82 35.72 33.72 34.40 34.76 33.30 32.81 33.05 33.29 32.97 33.02 33.16 33.58 36.45 37.80 45.01 44.55 42.80 43.26 43.00 42.62 42.18 42.27 42.64 39.88 38.00 39.22 39.45 35.98 31.63 30.89 31.10 31.17 31.51 31.77 31.58 32.07 32.78 33.44 33.73 33.56 34.17 34.78 34.54 34.94 35.61 35.36 35.58 36.35 36.61 36.65 36.84 37.37 38.16 38.51 38.29 38.23 38.31 38.75 39.53 40.20 40.43 40.24 40.31 40.88 41.07 40.98 41.66 42.43 42.74 42.92 42.93 42.79 43.38 44.22 44.64 45.29 46.04 46.49 46.47 47.65 49.47 51.60 53.84 55.85 56.50 55.49 53.35 51.24 49.66 48.59 47.87 47.50 47.34 47.26 47.17 47.07 46.99 46.94 46.96 47.03 47.14 47.29 47.47 47.68 47.91 48.15 48.40 48.65 48.92 49.23 49.61 50.06 50.52 50.93 51.19 51.23 51.06 50.77 50.47 50.29 50.30 50.55 51.03 51.68 52.41 53.12 53.69 54.03 54.08 53.88 53.62 53.52 53.64 53.83 54.00 53.88 53.52 53.87 54.72 54.83 55.46 58.78 60.46 60.21 58.02 55.13 54.41 54.41 54.36 54.64 54.30 54.23 54.77 55.06 54.96 54.89 55.37 
45.68 42.02 37.88 33.10 32.21 30.70 32.85 33.34 33.64 33.84 34.42 32.69 32.82 32.52 30.49 38.77 47.98 48.90 47.01 44.72 43.21 41.86 42.27 42.01 40.72 41.51 38.75 37.33 38.41 37.29 32.67 30.55 30.48 30.57 30.84 31.09 31.30 31.70 32.73 33.03 33.40 33.63 33.32 33.92 34.44 34.11 34.69 35.04 35.00 35.20 35.71 36.08 36.43 36.69 37.07 37.85 38.24 38.24 38.16 37.93 38.60 39.32 39.53 39.55 39.58 40.01 40.77 40.99 40.90 41.47 42.21 42.42 42.57 42.92 43.07 43.40 43.68 44.06 44.78 45.55 45.86 45.73 47.54 49.67 51.81 54.24 57.07 57.95 56.41 53.33 50.79 49.43 48.52 47.83 47.53 47.46 47.39 47.28 47.16 47.05 46.99 47.00 47.06 47.17 47.32 47.49 47.70 47.94 48.20 48.46 48.72 49.00 49.31 49.69 50.15 50.67 51.15 51.46 51.51 51.33 51.00 50.68 50.46 50.45 50.65 51.08 51.68 52.40 53.12 53.74 54.15 54.18 53.81 53.40 53.30 53.58 53.92 54.23 54.69 54.80 55.11 55.61 57.03 59.52 59.83 60.48 59.95 57.73 54.68 53.98 53.97 54.33 54.58 54.54 54.73 54.95 54.81 54.46 54.82 55.61 
44.75 39.44 34.47 30.83 31.32 31.40 32.60 33.56 34.94 37.98 37.59 35.34 33.05 33.60 38.27 43.96 46.01 47.40 46.88 45.64 45.08 43.84 42.60 42.86 43.65 41.39 37.92 35.83 34.99 32.25 29.74 29.91 30.20 30.77 31.22 31.39 31.41 31.83 32.77 32.80 33.27 33.51 33.09 33.55 34.13 34.33 34.58 34.43 34.46 34.78 35.36 36.18 36.64 36.71 36.77 37.11 37.41 37.91 38.34 38.15 38.30 39.02 39.33 39.36 39.73 40.40 40.87 41.00 40.90 41.09 41.49 41.53 41.89 42.69 43.12 43.22 43.05 43.28 44.11 44.71 45.11 45.77 48.36 50.32 51.82 53.68 57.83 58.83 56.61 52.10 49.41 48.84 48.34 47.61 47.46 47.54 47.49 47.38 47.23 47.09 47.02 47.03 47.11 47.22 47.35 47.52 47.73 47.99 48.27 48.55 48.82 49.10 49.41 49.78 50.27 50.85 51.45 51.85 51.92 51.67 51.29 50.92 50.69 50.62 50.78 51.12 51.65 52.31 53.03 53.71 54.23 54.28 53.67 53.03 52.95 53.56 54.15 54.70 55.52 55.74 55.78 56.90 61.68 61.25 60.27 60.08 58.93 56.09 54.01 53.67 53.80 54.03 54.03 54.34 54.67 54.74 54.47 54.52 55.18 55.60 
38.74 35.56 32.63 31.22 30.82 30.99 32.60 33.37 33.13 41.25 41.37 40.24 39.42 41.15 44.78 44.10 43.22 43.92 43.07 43.59 43.99 43.41 44.29 46.74 44.94 41.32 37.76 34.65 31.94 29.47 29.07 29.51 30.22 31.24 31.61 31.83 31.63 31.79 32.38 32.52 32.80 33.02 33.02 33.69 34.39 34.69 34.68 34.25 34.51 35.04 35.52 35.97 36.18 36.50 36.53 36.61 36.86 37.35 37.98 37.84 37.80 38.54 39.06 39.38 40.06 40.29 40.26 40.48 40.58 40.67 40.81 40.80 41.36 42.14 42.48 42.38 42.41 43.56 45.20 46.71 47.12 48.29 50.84 51.68 51.75 51.48 56.85 57.28 54.74 49.01 47.03 48.11 48.10 47.18 47.25 47.54 47.50 47.40 47.25 47.09 47.01 47.06 47.17 47.27 47.38 47.53 47.75 48.02 48.33 48.65 48.93 49.21 49.49 49.83 50.32 51.00 51.77 52.35 52.41 52.03 51.52 51.14 50.87 50.78 50.85 51.10 51.51 52.09 52.78 53.47 54.09 54.23 53.37 52.55 52.52 53.63 54.34 54.92 55.46 55.83 55.57 57.74 60.34 58.51 59.00 58.85 56.53 54.05 53.71 53.71 53.94 54.10 54.16 54.30 54.53 54.53 54.23 54.44 55.10 55.06 
32.11 33.51 33.09 33.11 36.91 36.01 33.44 34.19 35.23 38.45 41.64 42.57 42.60 44.20 45.56 45.06 43.07 38.77 37.11 39.47 41.03 40.22 41.05 43.26 42.39 39.74 37.00 33.65 30.34 29.14 29.25 29.43 30.17 31.04 31.22 31.46 31.62 31.64 32.25 32.50 32.66 33.10 33.63 33.94 33.91 34.29 34.51 34.52 35.41 35.84 35.60 35.30 35.49 36.16 36.37 36.46 36.73 37.04 37.36 37.58 37.79 38.33 38.52 39.29 39.73 39.56 39.73 40.02 40.09 40.43 40.56 40.76 41.06 41.50 42.19 43.71 45.83 47.23 48.72 50.63 50.44 52.14 53.29 52.92 52.20 51.33 48.75 48.14 46.73 45.78 46.11 47.12 47.31 47.11 46.98 47.11 47.26 47.30 47.19 47.00 46.91 47.05 47.23 47.32 47.38 47.51 47.73 48.02 48.37 48.72 49.00 49.29 49.54 49.78 50.20 50.94 51.98 52.85 52.87 52.19 51.54 51.17 50.91 50.78 50.81 50.93 51.19 51.67 52.32 52.97 53.36 53.14 52.75 52.51 52.69 53.60 54.22 54.46 54.83 55.36 54.96 56.17 55.66 56.31 58.03 58.03 55.69 53.85 53.51 53.73 54.00 54.23 54.39 54.48 54.59 54.67 54.25 54.29 54.56 54.60 
31.64 32.37 31.39 37.10 42.64 38.77 37.14 34.71 35.17 35.78 35.99 41.28 41.94 42.00 42.94 43.40 39.65 35.75 37.06 38.13 39.86 39.15 39.04 39.14 38.10 37.21 35.41 31.86 29.17 29.05 29.15 29.23 29.79 30.29 30.26 30.86 31.23 31.20 31.90 32.46 32.05 32.69 33.43 33.20 32.95 33.51 34.03 34.60 35.52 35.53 34.97 34.88 35.41 36.12 36.32 36.21 36.58 37.01 37.34 37.62 38.08 38.14 38.45 39.34 39.05 38.90 39.53 39.78 39.68 39.52 39.84 40.63 41.75 43.17 45.47 48.86 50.70 50.14 51.89 53.73 54.00 54.47 54.08 52.14 49.54 46.66 44.77 44.90 45.26 45.40 45.50 46.15 46.64 46.79 46.81 46.86 47.01 47.15 47.06 46.79 46.66 46.99 47.32 47.35 47.34 47.44 47.67 47.96 48.30 48.70 48.92 49.27 49.49 49.57 49.81 50.48 51.81 53.19 53.07 51.86 51.05 50.88 50.62 50.50 50.50 50.53 50.60 51.01 51.67 52.55 52.86 52.55 52.74 53.07 53.21 53.51 54.09 54.62 55.02 55.28 55.01 54.90 55.60 56.50 58.91 59.25 56.67 54.04 53.68 54.17 54.24 54.20 54.17 54.08 54.46 54.98 54.76 54.38 54.31 54.20 
35.58 34.45 31.44 38.99 42.84 41.20 40.29 38.53 34.96 33.50 37.26 40.84 40.09 39.57 40.68 39.30 35.81 37.22 38.10 38.68 39.05 39.53 39.94 38.09 36.63 34.81 32.02 29.39 28.72 28.62 28.65 28.87 29.57 29.83 29.91 30.61 30.99 30.84 31.76 31.85 31.20 31.54 32.34 32.57 32.77 33.36 33.82 34.45 35.12 35.02 34.70 35.01 35.35 35.87 36.10 36.13 36.60 37.15 37.22 37.48 37.79 37.72 38.45 39.10 38.79 39.15 39.46 39.20 39.36 40.34 42.10 43.99 46.16 47.98 49.76 52.52 53.41 53.80 55.71 55.09 51.46 48.60 48.18 46.25 44.73 44.27 44.73 45.25 45.28 44.79 45.03 45.69 46.43 46.61 46.28 46.29 46.54 46.87 46.80 46.45 46.25 46.88 47.40 47.32 47.21 47.31 47.62 47.83 48.06 48.46 48.52 49.04 49.36 49.24 49.20 49.45 50.87 52.91 52.58 50.62 49.83 50.13 49.81 49.70 49.76 49.75 49.66 50.03 50.59 51.53 51.64 51.33 51.94 53.00 53.87 54.17 55.06 55.60 55.58 55.43 55.59 55.52 55.32 57.54 59.74 59.55 56.54 53.85 53.67 54.06 54.04 54.01 54.07 53.88 54.44 55.18 54.87 54.22 53.94 53.72 
39.39 38.22 33.24 36.37 39.76 39.94 39.45 39.39 39.06 38.45 38.13 38.26 37.28 37.22 36.93 34.92 35.16 37.13 37.85 38.45 38.34 37.89 35.67 35.18 34.35 31.06 28.31 27.87 28.21 28.50 28.69 29.11 29.82 30.25 30.21 30.52 30.85 31.03 31.80 31.54 31.22 31.76 32.20 32.61 32.98 33.32 33.55 34.16 34.90 34.77 34.65 34.87 34.93 35.33 35.70 36.01 36.72 36.95 36.87 37.16 37.47 37.43 38.17 38.46 38.66 39.18 39.33 40.35 42.33 45.54 47.46 49.27 51.21 52.31 53.76 55.26 54.64 52.33 49.84 46.97 43.80 43.30 43.16 43.05 43.54 43.93 44.02 44.54 44.60 44.67 44.81 45.04 45.77 45.73 45.36 45.47 45.89 46.19 46.14 46.01 46.15 46.63 47.17 47.21 47.00 47.15 47.77 47.78 47.57 47.53 47.71 48.24 49.02 49.10 48.90 48.30 48.91 50.11 50.01 48.59 48.44 48.50 48.33 48.17 48.21 48.35 48.57 49.00 49.64 50.51 50.69 50.98 51.74 53.46 54.79 55.57 56.31 56.22 55.62 55.27 55.59 55.54 55.49 57.49 58.51 57.86 55.27 53.59 53.36 53.73 53.90 54.24 54.33 54.14 54.48 54.59 54.05 53.69 53.73 53.74 
38.79 36.21 32.86 33.43 34.68 33.84 34.77 39.66 42.68 40.40 35.55 32.30 32.25 32.38 33.86 33.84 35.79 36.97 37.89 38.49 37.84 34.75 32.16 32.96 32.87 29.80 27.54 27.44 27.78 28.40 28.95 29.19 29.69 30.32 30.31 30.27 30.64 31.35 31.84 31.59 31.93 32.26 32.14 32.47 32.72 33.16 33.33 33.86 34.56 34.52 34.61 34.84 35.03 35.47 35.82 36.30 36.70 36.73 36.62 37.09 37.42 37.72 38.08 38.14 39.00 41.43 43.81 45.16 46.88 49.22 51.23 53.56 54.62 53.89 52.24 50.13 46.75 43.10 42.03 41.97 42.71 42.92 42.67 42.80 43.23 43.32 43.54 43.87 44.01 44.38 44.33 44.27 44.88 44.89 44.84 45.09 45.39 45.24 45.03 45.61 46.25 46.57 46.81 46.79 46.81 47.23 47.71 47.54 47.51 47.84 47.75 47.71 47.96 48.24 48.27 48.07 47.83 47.77 47.45 46.96 46.82 46.96 47.20 47.54 47.73 48.15 49.03 49.46 50.13 50.96 51.43 51.81 53.01 54.51 55.82 56.61 56.53 55.96 55.37 55.37 55.99 55.82 56.27 57.26 57.33 56.07 54.41 53.68 53.53 53.91 54.27 54.45 54.39 54.45 54.44 54.10 53.91 53.79 53.90 54.00 
37.29 35.61 34.69 33.65 31.59 29.28 30.29 38.66 41.72 37.98 33.64 31.73 32.07 31.94 32.28 35.38 36.44 37.09 37.98 37.58 35.51 32.13 30.19 31.11 32.01 29.33 27.41 26.87 27.13 27.89 28.48 28.47 28.97 29.85 29.74 29.74 30.32 31.14 31.45 31.54 32.10 32.00 31.92 32.05 32.13 32.69 32.97 33.43 33.97 34.21 34.73 35.14 35.04 35.29 35.95 36.27 36.37 36.37 36.52 37.11 37.65 37.84 37.70 37.67 40.94 47.24 49.29 49.03 50.53 52.10 53.30 52.02 49.42 46.18 43.21 41.69 40.72 41.16 41.94 42.48 42.52 42.37 42.30 42.30 42.43 42.61 43.13 43.56 43.86 44.20 44.06 44.23 44.44 44.28 44.37 44.86 44.95 44.52 44.54 45.52 46.21 46.27 46.23 46.20 46.40 47.10 47.15 46.97 47.50 47.87 47.61 47.41 47.36 47.50 47.67 47.66 47.11 46.55 46.29 46.44 46.74 47.10 47.53 47.99 48.35 49.31 50.06 50.32 51.06 51.91 52.05 52.66 53.91 54.99 56.29 56.98 56.62 56.03 55.97 56.47 56.96 56.54 56.33 56.94 56.78 55.10 53.90 53.49 53.67 54.00 54.13 54.09 54.18 54.37 54.29 54.23 54.35 54.21 53.89 54.00 
39.50 37.98 36.38 34.66 31.51 30.90 32.01 35.97 37.08 34.38 33.23 34.13 36.65 35.44 33.94 35.08 36.27 37.04 37.43 36.33 33.88 30.94 30.11 29.25 29.84 28.89 27.51 27.16 27.07 27.69 27.97 27.78 28.60 29.24 29.19 29.21 29.84 30.63 30.81 31.22 31.84 31.83 31.62 31.46 31.42 32.30 32.69 33.23 33.69 33.91 34.63 34.91 34.49 34.81 35.57 35.58 35.85 36.13 36.33 36.79 37.22 37.95 38.29 38.70 42.84 51.01 52.04 52.18 51.90 50.68 46.82 42.49 40.76 40.48 40.55 40.75 41.12 41.56 41.81 41.85 41.94 42.36 42.45 42.37 42.25 42.42 42.92 43.45 44.13 44.17 43.98 43.94 43.78 43.72 43.86 44.11 44.00 44.03 44.48 45.23 45.58 45.38 45.60 45.78 46.24 46.76 46.57 46.56 47.26 47.37 47.28 47.36 47.29 47.11 46.91 46.55 46.09 45.48 45.50 46.68 47.65 47.92 48.02 48.33 49.03 49.95 50.41 50.78 52.05 53.03 53.29 53.89 54.58 55.64 56.67 57.21 56.88 56.95 57.30 57.36 57.23 56.34 55.90 56.60 56.41 55.23 53.62 53.33 53.69 53.70 53.61 53.63 53.77 53.85 53.98 54.22 54.44 54.29 53.97 54.06 
39.22 37.66 35.71 34.94 33.21 30.80 30.87 32.52 32.45 31.87 32.97 37.36 41.04 36.64 34.03 35.12 35.42 35.21 35.10 34.23 31.21 29.65 30.05 29.55 29.50 29.43 28.18 27.17 27.30 27.73 27.72 27.79 28.38 28.65 28.88 29.28 29.61 30.33 30.81 31.02 31.60 31.84 31.71 31.31 31.67 32.65 32.83 33.21 33.58 33.90 34.19 34.17 34.06 34.96 35.30 35.06 35.25 35.73 36.45 37.77 38.75 40.36 42.46 43.68 47.64 51.88 51.49 48.69 44.77 41.69 39.54 39.10 40.00 40.58 40.38 40.53 41.18 41.43 41.45 41.53 41.92 42.47 42.49 42.33 42.42 42.58 42.63 43.32 44.04 44.01 43.82 43.68 43.73 44.02 43.97 43.66 43.49 43.74 44.05 44.62 44.89 44.94 45.35 45.58 45.91 46.36 46.22 46.65 47.17 47.01 47.09 47.25 47.11 46.73 46.25 45.95 45.53 45.10 45.64 47.11 47.89 48.11 48.19 48.49 49.26 49.90 50.35 51.05 52.92 54.08 54.54 54.60 55.33 56.80 57.41 57.31 57.09 57.69 57.54 57.12 56.76 56.17 55.93 56.66 57.72 56.85 54.53 53.63 53.63 53.60 53.65 53.66 53.55 53.53 53.87 54.06 54.06 54.15 53.86 53.98 
36.29 34.23 32.32 33.72 36.15 35.73 32.54 31.23 31.61 31.31 30.51 34.40 34.86 31.41 32.20 33.28 31.71 32.77 32.81 32.22 31.05 30.29 30.30 30.23 30.07 28.83 27.68 27.05 27.39 27.51 27.15 27.73 28.45 28.43 28.95 29.57 29.56 29.94 30.30 30.37 30.67 31.15 31.46 31.62 32.16 32.81 32.68 32.83 33.34 33.81 34.05 34.08 34.48 35.28 35.13 34.68 35.50 36.85 39.70 41.70 42.43 43.86 46.60 45.53 44.10 43.73 42.77 40.59 38.78 38.59 39.00 39.65 40.55 40.57 39.97 40.37 41.02 41.06 41.12 41.35 41.65 41.93 41.78 41.86 42.37 42.68 42.57 43.00 43.39 43.42 43.65 43.53 43.83 44.20 44.11 43.79 43.65 43.86 43.96 44.27 44.52 44.74 44.93 44.89 45.26 45.82 45.88 46.54 46.94 46.82 46.78 46.85 46.74 46.33 45.88 45.52 45.29 45.57 46.40 47.03 47.44 47.73 47.97 48.69 49.69 50.46 50.58 51.47 53.43 54.46 54.84 54.85 55.77 56.57 56.73 56.54 56.93 57.18 56.59 56.19 55.93 55.40 55.12 57.52 59.57 58.43 55.29 53.27 53.15 53.60 53.87 53.83 53.59 53.59 53.83 53.73 53.61 53.69 53.57 53.67 
33.68 31.61 31.38 30.58 35.17 37.74 35.78 32.21 31.47 31.25 31.26 32.31 32.43 31.52 31.67 31.81 31.32 31.35 31.14 30.77 30.48 30.17 29.93 29.38 27.86 27.46 26.99 27.08 27.55 27.29 27.36 26.97 27.71 27.68 27.89 28.82 29.18 29.33 29.47 29.91 30.22 30.29 30.98 31.54 31.88 32.34 32.37 32.69 33.15 33.56 33.95 34.38 34.63 35.11 35.22 37.23 39.54 41.34 43.87 44.76 44.55 44.33 42.51 39.02 40.85 40.54 38.21 38.69 38.95 38.95 39.08 39.70 40.39 40.05 39.89 40.54 40.94 40.87 41.07 41.14 41.03 41.15 41.44 41.51 42.09 42.44 42.38 42.55 42.76 43.04 43.53 43.60 43.57 43.53 43.62 43.54 43.76 44.17 44.27 44.24 44.19 44.30 44.39 44.45 44.94 45.38 45.44 45.94 46.57 46.58 46.36 45.99 45.79 45.74 45.70 45.42 45.90 46.69 47.02 47.28 47.29 47.24 47.57 48.93 50.29 50.90 51.02 52.24 53.77 54.55 54.73 54.79 55.42 55.66 55.52 55.59 55.98 55.98 55.73 55.58 55.32 54.21 54.09 57.20 59.73 58.29 54.74 52.50 52.63 53.16 53.50 53.46 53.43 53.45 53.36 53.06 53.05 53.21 53.33 53.65 
32.35 31.79 31.02 29.99 33.15 37.31 34.75 30.11 30.80 30.94 30.99 31.15 31.02 30.58 31.13 30.97 30.40 30.16 29.65 29.26 29.92 29.99 29.87 29.51 28.80 28.05 28.59 28.18 28.58 28.93 28.05 27.06 26.93 27.12 26.83 27.98 28.75 28.79 29.05 29.98 30.34 30.35 31.29 31.66 31.84 32.13 32.05 32.26 32.60 33.04 33.87 34.63 34.74 34.73 36.86 41.68 44.40 44.87 44.73 43.74 41.70 38.65 40.04 39.52 39.73 39.39 38.45 39.28 39.12 38.94 39.02 39.55 39.71 39.43 39.68 40.49 40.79 40.91 41.32 41.26 40.91 41.41 41.92 41.72 41.55 41.73 41.82 42.23 42.51 42.80 43.33 43.55 43.41 43.31 43.29 43.12 43.54 44.07 44.17 44.01 43.95 44.06 44.12 44.50 44.94 45.28 45.24 45.66 46.00 45.96 45.50 44.85 44.66 45.28 46.06 46.80 47.62 47.70 47.80 47.93 47.64 47.38 47.96 49.39 50.48 51.06 51.77 53.06 53.84 54.15 54.00 54.16 54.90 55.00 54.74 54.69 54.84 55.18 55.58 55.82 55.68 54.34 53.00 56.35 58.60 57.03 53.89 52.35 52.64 52.78 52.85 52.87 52.94 53.06 52.91 52.61 52.63 52.71 53.01 53.43 
32.81 34.10 34.04 31.85 32.51 33.01 30.32 30.48 30.69 30.74 30.59 30.27 29.94 28.66 31.31 30.53 29.16 29.23 29.74 29.73 29.94 30.02 30.03 29.98 29.78 29.79 30.61 30.05 30.84 30.76 29.55 28.16 27.19 27.04 27.31 28.22 28.69 28.53 28.77 29.51 29.69 29.90 30.80 31.41 31.86 31.98 31.83 32.10 33.35 34.48 35.93 37.00 37.85 38.69 40.73 43.57 44.86 43.47 40.50 38.52 39.74 39.29 39.48 39.29 39.17 38.82 38.29 38.68 38.70 38.73 38.89 39.17 39.33 39.29 39.47 40.00 40.11 40.34 40.85 40.93 40.89 41.47 41.97 41.56 41.19 41.20 41.42 41.76 42.19 42.48 42.68 42.78 43.00 43.11 42.87 42.46 43.17 43.68 43.57 43.48 43.66 43.83 44.02 44.25 44.66 44.85 44.89 45.07 45.08 44.97 44.81 44.39 44.44 45.55 47.15 48.43 48.37 48.04 48.32 48.27 47.95 48.05 48.91 50.00 50.93 51.66 52.55 52.81 52.77 53.07 53.64 54.11 54.71 54.30 53.90 53.86 54.11 54.34 54.86 55.47 55.93 54.40 53.08 56.69 59.13 57.88 54.38 52.89 52.73 52.73 52.71 52.51 52.60 52.70 52.53 52.30 52.25 52.16 52.56 52.88 
33.05 34.02 33.62 31.80 30.13 31.23 30.88 30.80 30.72 30.74 30.37 29.40 29.79 31.12 32.54 31.07 28.83 29.41 29.91 30.00 30.09 30.11 30.26 30.61 30.55 30.20 31.36 31.99 32.40 31.09 29.79 28.72 28.99 28.88 27.96 27.95 27.93 27.95 28.56 29.02 29.77 30.44 31.02 32.16 32.99 33.69 33.73 34.68 37.13 38.37 38.99 40.48 43.69 45.00 42.36 39.98 39.74 38.84 39.74 39.49 39.45 39.28 39.31 38.98 38.84 38.44 37.87 38.04 38.13 38.56 38.77 38.79 39.04 39.19 39.26 39.38 39.57 39.86 40.30 40.51 40.69 40.87 40.97 40.95 40.92 41.07 41.12 41.21 41.61 41.92 41.89 42.11 42.65 42.75 42.14 42.05 42.96 43.28 42.97 42.90 43.25 43.78 44.06 44.15 44.39 44.45 44.22 44.15 44.11 44.32 44.48 44.39 44.82 45.92 47.64 48.50 48.13 47.94 48.14 48.29 48.47 48.97 49.63 50.37 51.30 52.39 52.85 52.61 52.53 53.49 54.37 55.01 54.98 54.32 53.92 53.98 53.99 53.61 53.52 53.75 55.19 54.49 53.24 55.84 59.44 59.02 55.70 52.93 52.45 52.71 52.64 52.59 52.68 52.45 52.14 52.09 52.07 51.99 52.35 52.55 
27.74 30.52 31.11 30.72 30.36 30.90 31.19 31.11 30.67 31.13 30.75 32.08 31.72 32.22 32.79 30.68 29.72 29.68 29.95 30.25 30.31 30.08 30.27 31.66 31.62 32.50 31.47 32.37 33.10 31.78 30.30 29.77 31.12 30.57 28.93 28.24 28.95 30.12 30.38 31.20 33.20 33.90 34.44 35.16 36.58 37.08 36.84 37.76 40.99 41.74 41.39 42.82 44.98 43.87 40.31 38.20 39.01 39.80 40.11 40.26 39.27 39.10 39.48 38.48 38.78 38.24 37.73 38.06 38.54 38.74 38.59 38.58 38.85 39.12 39.27 39.64 40.03 40.17 40.30 40.40 40.40 40.31 40.31 40.38 40.62 40.92 40.92 40.88 41.21 41.39 41.27 41.66 42.22 42.13 41.96 42.28 42.86 42.96 42.74 42.89 43.14 43.59 43.95 44.10 44.35 44.34 44.01 43.91 43.83 43.76 43.97 44.53 45.39 46.02 47.03 47.92 48.19 48.07 48.12 48.51 48.89 49.33 49.81 50.40 51.50 52.88 53.20 53.38 53.95 54.49 54.98 55.52 55.16 54.66 54.46 54.48 54.37 53.92 53.31 53.37 54.73 54.82 53.27 53.98 57.76 58.80 55.97 52.97 51.97 51.96 52.21 52.52 52.66 52.37 52.14 52.10 52.05 52.13 52.36 52.36 
28.34 29.19 29.60 29.62 29.67 30.82 31.86 31.77 29.73 32.34 33.12 33.16 31.46 29.40 29.52 29.12 29.69 29.62 29.96 30.75 30.83 29.63 29.07 34.14 37.15 34.82 32.15 31.78 32.44 32.46 31.34 31.06 32.17 31.36 30.27 30.92 33.84 34.11 33.30 34.55 36.30 36.74 36.83 38.36 40.16 40.34 39.44 40.95 44.57 44.39 43.13 42.56 42.57 40.67 38.19 38.11 40.49 41.73 42.49 41.95 40.48 38.35 41.04 43.07 41.40 39.29 38.74 40.20 40.02 39.01 38.24 38.13 38.35 38.37 38.83 39.65 40.23 40.19 40.48 40.55 40.31 40.22 40.34 40.45 40.64 40.82 40.81 40.85 41.08 41.02 41.09 41.43 41.65 41.67 42.16 42.46 42.73 42.95 42.96 43.02 42.96 43.27 43.58 43.66 43.87 44.10 44.17 44.17 43.50 43.00 43.42 44.90 46.12 46.49 47.15 47.99 48.44 48.40 48.41 48.81 48.83 49.06 49.77 50.39 51.82 53.17 53.64 54.59 55.23 55.19 55.67 55.86 55.43 55.14 55.13 55.07 54.54 54.16 54.04 54.28 54.54 55.15 54.41 53.35 56.20 58.95 58.17 54.69 51.91 51.28 51.81 52.35 52.32 52.19 52.14 52.02 51.96 52.05 52.12 52.01 
27.89 28.32 28.46 28.48 27.90 30.86 33.65 34.40 33.68 32.32 32.30 32.82 29.98 29.61 29.56 29.45 30.31 29.16 29.53 31.96 34.37 32.14 30.70 34.96 38.01 36.91 35.18 32.18 30.81 30.69 30.03 31.22 32.39 31.60 30.16 32.85 36.78 36.15 35.50 36.74 38.16 38.57 39.53 42.38 43.05 42.77 41.70 44.34 46.57 45.64 43.06 42.69 42.98 40.61 38.07 39.02 41.65 42.15 42.33 41.35 39.55 40.50 46.74 45.79 42.85 40.47 41.65 42.61 41.92 40.42 38.80 38.31 38.34 38.13 38.31 39.19 39.53 39.97 40.59 40.83 40.36 40.25 40.63 40.82 40.66 40.75 40.93 40.92 40.83 41.01 41.30 41.42 41.34 41.71 42.44 42.31 42.38 42.63 42.66 42.80 42.86 43.09 43.21 43.13 43.21 43.47 43.94 43.88 43.30 43.12 43.77 45.15 46.03 46.83 47.78 47.97 48.04 47.95 48.20 48.79 48.78 49.00 49.60 50.20 51.73 53.13 53.69 54.57 55.16 55.53 55.82 55.86 55.89 55.69 55.68 55.24 54.42 54.26 54.69 54.78 54.85 55.70 55.38 53.22 53.95 57.76 59.24 56.79 53.02 51.32 51.90 52.26 52.09 51.93 51.95 51.92 51.97 51.90 51.93 51.89 
