ncols        152
nrows        107
xllcorner    -71.283472222222
yllcorner    43.940972222222
cellsize     30
447 449 451 454 456 458 459 461 464 467 469 470 470 469 470 473 476 481 485 489 494 496 498 500 502 505 508 512 518 523 531 540 549 555 559 564 568 572 577 584 590 597 605 615 627 640 651 659 666 673 678 682 685 689 697 706 715 721 731 741 749 758 767 775 782 785 789 794 800 805 811 815 819 821 824 825 828 831 832 832 830 825 821 815 809 803 798 792 785 777 767 758 753 751 750 750 751 753 756 759 761 762 766 770 773 774 773 771 769 765 757 750 744 741 738 741 742 745 747 749 751 751 751 751 750 747 745 743 740 735 727 718 709 701 694 681 664 652 642 634 626 621 619 620 623 628 632 637 643 650 656 661 
447 447 449 451 454 456 458 459 461 465 468 469 468 469 470 474 478 481 483 487 489 494 497 499 502 507 510 515 521 526 535 547 553 558 561 565 568 574 581 590 595 601 608 618 633 647 659 667 674 680 684 690 693 698 704 713 720 728 737 745 750 757 765 775 782 787 792 797 802 809 816 820 824 828 831 833 833 836 837 838 837 834 830 824 817 811 807 801 793 787 782 772 767 765 762 764 764 767 770 771 771 774 776 778 779 779 776 773 769 762 756 752 749 748 749 751 754 755 755 758 759 759 758 758 757 755 751 747 743 739 731 721 712 703 692 679 665 652 643 633 624 621 623 626 629 632 635 639 646 653 659 665 
446 447 447 449 452 456 458 458 460 464 468 469 470 471 473 475 478 481 484 485 488 492 496 501 507 511 514 520 526 534 542 549 554 557 560 562 566 573 585 594 601 607 613 622 635 648 658 668 677 684 689 695 700 704 711 717 724 733 742 746 750 755 763 771 780 786 792 799 806 814 818 821 824 829 833 834 837 840 844 844 845 844 839 833 827 821 815 809 802 796 789 784 781 780 780 781 783 785 787 787 787 788 791 789 788 785 782 777 770 764 759 758 757 758 759 760 762 763 765 765 766 766 767 768 765 762 758 752 747 741 733 721 710 700 689 677 665 655 644 634 627 624 628 632 635 638 641 646 651 657 665 670 
447 448 449 452 455 458 460 461 462 464 467 469 471 472 473 474 477 481 486 488 490 493 498 502 510 514 520 525 531 536 543 548 552 555 559 562 567 576 587 598 606 614 622 628 639 650 659 668 678 687 693 698 702 708 716 725 733 739 743 749 752 756 762 768 774 782 790 798 806 811 813 814 818 823 827 831 836 844 849 850 851 851 847 842 839 835 829 823 817 810 804 798 798 798 798 799 800 800 801 800 799 801 801 799 796 792 789 784 778 772 769 768 769 771 771 771 770 770 773 775 775 775 775 774 771 767 763 756 749 743 733 719 706 695 685 676 667 657 646 638 631 631 632 635 639 643 648 653 657 664 672 678 
448 449 451 453 456 459 461 462 464 465 466 469 471 473 472 474 476 482 488 492 495 498 500 505 510 516 523 530 534 537 542 545 550 555 559 563 572 581 592 599 610 619 629 635 644 652 661 667 677 687 693 699 705 710 718 729 735 740 744 749 755 758 760 763 768 774 780 790 796 801 804 806 810 814 818 823 830 841 847 851 854 857 854 851 849 847 841 836 831 826 820 818 816 814 814 813 812 814 814 812 810 811 810 809 805 801 797 793 788 784 781 780 780 779 780 780 778 779 780 783 784 783 781 778 776 772 766 760 753 744 734 720 703 692 684 674 663 653 645 638 634 635 637 640 642 649 656 661 665 671 679 687 
448 450 451 454 456 458 460 462 464 465 465 467 470 473 474 475 479 484 488 493 497 501 504 507 510 516 523 532 536 539 542 548 552 556 560 566 572 582 592 599 607 618 627 636 644 653 660 666 675 685 692 700 707 713 720 727 734 739 744 749 750 753 755 757 760 765 769 774 782 789 793 795 798 803 808 815 822 829 839 847 855 862 863 862 860 856 852 847 845 842 836 833 830 829 829 828 828 830 830 829 827 826 823 821 815 808 804 800 797 794 791 790 789 788 787 789 790 789 790 791 790 789 785 782 778 773 769 764 755 745 732 718 706 693 681 668 660 652 645 638 638 639 642 644 649 654 660 668 674 680 689 699 
447 449 451 454 457 458 460 462 464 465 466 467 470 473 475 479 483 486 490 495 500 502 504 507 512 517 525 532 537 539 544 549 554 556 560 566 574 583 592 599 607 615 623 632 642 652 658 665 673 682 691 701 707 713 721 726 728 734 739 744 743 743 745 749 752 753 756 761 765 771 778 781 786 791 797 805 813 819 827 837 855 864 870 871 869 865 860 857 855 852 848 846 845 844 844 844 844 843 840 839 839 839 837 832 827 820 814 811 808 805 801 799 798 797 796 797 799 800 800 799 799 796 792 787 784 782 777 769 760 748 733 720 709 696 682 670 663 657 649 643 642 644 648 653 659 665 669 676 684 692 700 709 
447 448 451 454 456 458 460 463 465 467 467 469 472 475 478 482 486 488 492 498 502 504 507 511 514 521 528 533 536 540 544 550 553 555 560 567 576 586 595 601 609 615 622 631 641 650 658 663 671 678 687 696 702 707 711 715 718 721 726 731 732 733 735 737 740 742 743 747 751 756 760 767 773 780 789 795 805 814 821 830 846 860 870 875 875 871 867 864 862 861 859 859 860 862 861 861 860 856 854 853 853 853 850 844 837 832 827 825 821 817 813 812 810 808 806 808 810 811 810 809 806 803 798 792 788 786 781 772 760 746 731 719 708 697 686 677 669 660 652 647 645 648 653 660 668 673 680 687 695 702 713 719 
449 450 452 453 455 458 460 463 465 466 469 472 476 479 480 483 486 490 495 501 505 508 513 516 520 524 529 533 536 539 544 548 552 556 563 570 577 587 594 601 608 615 623 631 639 647 655 660 666 672 682 689 692 693 696 701 707 712 714 717 719 722 726 728 730 732 736 738 741 745 751 758 764 770 781 792 803 812 819 828 841 852 867 877 881 882 876 874 871 871 871 874 877 876 880 882 880 877 876 873 872 867 860 853 846 842 838 833 831 827 824 824 822 820 821 821 821 820 818 814 811 806 800 795 790 785 778 770 757 742 728 717 708 698 687 678 668 659 651 649 650 656 662 667 672 679 687 696 703 712 720 728 
449 451 453 455 456 457 458 461 464 468 473 477 480 481 483 485 489 493 498 504 508 512 517 523 524 526 531 533 536 540 543 547 551 558 565 571 578 586 594 600 606 613 620 629 634 641 648 654 659 664 672 677 679 681 683 690 698 701 704 705 708 711 716 720 722 726 729 732 735 739 746 755 760 766 777 791 801 811 819 829 839 849 862 875 885 888 888 886 884 885 886 889 891 892 893 898 898 895 892 889 885 879 872 862 857 853 848 846 842 839 836 836 833 832 832 831 829 828 826 822 815 810 804 798 789 781 773 765 754 741 730 721 710 698 687 675 664 656 653 654 659 667 672 678 682 688 698 706 712 721 729 736 
446 449 452 455 457 457 458 461 466 471 476 479 481 483 485 488 491 493 499 505 509 514 520 524 526 528 530 534 537 541 545 550 554 559 566 573 581 591 598 601 605 609 616 625 630 636 641 645 650 656 661 665 669 671 674 680 685 690 692 696 698 702 708 714 717 721 726 729 733 739 744 752 757 763 772 788 801 811 821 831 838 848 859 876 885 892 896 899 901 901 903 904 908 906 909 910 912 909 905 901 897 889 882 873 867 865 863 860 856 854 851 847 843 840 840 838 835 833 829 824 817 810 803 795 786 777 769 758 747 740 730 718 706 696 686 676 667 659 658 661 667 674 680 686 690 698 707 713 718 726 736 744 
446 448 452 455 458 460 462 465 469 474 477 479 480 483 487 490 493 496 499 505 511 516 520 523 524 527 530 534 538 543 549 553 557 562 566 574 584 593 599 601 603 608 615 622 626 630 633 637 643 647 651 655 659 661 665 669 674 680 687 689 693 697 704 711 718 721 724 727 735 743 748 754 760 763 772 789 803 816 826 834 843 853 867 878 889 896 904 911 917 920 920 924 927 929 928 929 929 925 919 916 909 904 896 887 882 879 878 874 871 869 864 860 856 852 849 846 841 835 831 824 813 804 799 792 782 772 763 752 744 734 722 710 699 693 685 676 666 661 661 665 672 680 689 697 706 711 719 723 726 732 740 752 
448 450 453 456 460 462 465 467 471 475 479 481 482 484 488 492 497 498 502 508 514 518 521 523 525 528 531 534 539 545 551 556 560 564 569 574 581 588 596 599 602 605 612 618 623 625 628 631 635 639 640 643 648 652 656 660 665 675 684 689 692 697 702 709 715 720 724 728 737 748 755 761 765 771 782 794 808 820 831 840 850 861 873 884 896 906 916 926 934 935 938 940 946 948 949 948 943 936 930 926 922 916 908 902 897 896 890 885 880 879 875 868 863 859 856 851 846 839 830 819 807 799 793 785 776 765 756 747 738 729 719 708 699 692 684 675 668 664 664 670 678 687 699 708 715 722 729 732 737 741 751 758 
449 451 454 458 461 464 466 469 473 477 482 485 487 489 493 497 499 502 504 509 515 520 522 524 526 529 533 537 542 546 550 556 561 565 569 575 580 587 595 600 602 606 608 614 618 620 622 625 628 630 632 635 642 647 651 656 665 675 684 689 693 700 705 711 718 723 727 736 746 752 760 764 772 782 791 800 812 822 832 845 857 869 882 891 903 916 930 939 945 949 955 959 963 963 962 962 959 950 942 936 932 928 921 914 910 908 903 899 896 891 888 883 877 870 863 856 846 838 829 817 804 795 788 781 772 762 751 742 734 724 715 707 699 693 685 676 671 669 671 676 687 697 706 714 722 729 735 741 746 755 759 765 
452 455 458 459 461 464 467 470 474 479 484 489 491 493 497 501 503 504 507 511 515 520 523 525 528 530 535 540 544 546 550 554 561 565 570 575 580 587 594 599 602 602 603 607 611 614 617 619 623 625 630 635 644 649 655 660 669 677 683 687 694 701 710 718 726 732 738 746 755 763 768 775 783 791 800 808 821 830 837 849 864 878 886 896 910 921 934 944 951 959 968 974 976 976 973 971 969 965 957 950 945 939 935 930 929 923 918 918 915 908 902 896 889 883 875 863 850 839 827 814 803 793 784 776 769 762 751 740 730 722 714 706 700 694 686 680 678 677 680 686 694 702 712 721 728 737 748 754 760 766 768 774 
456 459 460 461 463 466 469 472 476 481 488 492 494 496 499 502 504 506 509 513 516 520 523 525 527 530 535 541 544 547 551 555 560 565 568 571 577 583 588 593 596 597 598 601 607 613 617 621 625 631 637 644 651 657 661 666 673 679 683 687 692 701 714 725 732 739 746 755 769 776 781 787 794 804 810 817 827 836 842 851 864 874 885 899 913 922 934 943 955 969 975 981 984 984 982 980 976 972 966 961 955 952 949 948 948 946 938 935 931 923 914 904 894 887 880 868 854 839 825 813 803 793 783 774 765 758 750 743 732 724 718 713 706 700 693 689 684 684 689 695 702 710 719 727 734 744 755 764 771 775 777 783 
457 459 461 462 465 469 473 476 481 488 493 496 498 500 503 506 508 510 514 517 519 521 524 527 530 534 539 542 544 547 552 556 562 566 569 571 576 579 583 587 591 595 600 605 611 617 621 626 632 638 643 650 658 663 666 673 680 684 688 694 701 709 719 728 737 744 753 768 779 788 795 798 809 815 820 825 831 836 846 856 861 871 886 903 911 923 934 943 953 969 979 987 989 989 986 985 982 977 973 970 968 967 966 965 965 962 956 950 942 933 924 912 899 887 877 868 856 843 828 814 803 792 783 773 764 757 752 745 739 733 728 725 721 712 704 697 691 691 696 704 712 719 726 736 745 753 764 772 779 786 791 793 
457 459 462 464 468 472 478 483 489 494 497 500 503 505 509 512 513 514 516 518 519 522 526 531 535 540 543 546 546 549 553 558 562 566 569 574 576 580 583 587 591 598 606 613 616 618 622 629 638 644 648 651 660 667 672 679 685 691 696 704 713 720 729 738 746 758 768 779 789 800 808 815 818 823 827 831 833 839 849 856 863 873 886 902 913 923 934 939 944 961 978 985 990 988 987 987 987 986 983 980 979 979 979 979 978 975 969 961 950 940 929 918 904 887 875 868 861 851 835 818 803 792 784 776 769 764 758 753 748 742 737 732 728 721 711 702 696 694 699 707 717 726 735 745 754 762 770 778 786 793 798 801 
458 460 464 468 471 475 480 487 493 497 500 503 505 508 512 514 515 515 517 519 520 523 527 532 537 542 547 549 551 554 557 559 562 565 568 574 580 584 590 593 597 604 613 619 621 623 627 635 643 650 653 656 662 669 676 684 692 697 705 715 723 731 740 750 763 774 785 792 799 809 817 821 823 827 832 836 839 844 851 855 859 869 885 899 908 918 925 929 934 947 969 978 984 985 987 989 991 991 989 989 988 990 992 993 991 986 979 969 959 945 932 919 904 890 879 870 860 848 834 820 806 794 789 785 779 773 768 763 757 752 747 742 735 725 716 706 699 700 704 712 722 734 744 753 762 770 779 785 791 798 803 806 
458 462 466 470 473 476 482 490 496 501 504 507 509 511 514 517 518 518 519 521 523 525 529 532 536 544 550 552 553 556 559 561 562 565 571 578 587 593 599 601 605 612 617 621 626 630 635 642 649 654 658 662 668 674 682 690 695 701 707 717 728 739 749 762 772 784 792 797 804 812 819 824 829 832 836 842 847 848 850 850 852 860 874 890 900 905 911 919 923 934 947 962 969 977 983 989 990 990 992 995 997 998 1000 1000 997 989 981 974 964 948 932 917 905 892 882 870 858 846 836 825 814 807 800 796 791 785 779 772 766 760 753 748 742 732 721 711 704 705 709 718 732 744 753 761 771 780 785 791 796 804 810 812 
459 462 466 471 476 479 485 493 499 503 507 510 513 514 516 517 518 519 520 523 526 529 532 534 541 547 554 557 560 560 563 566 568 571 575 583 592 602 608 612 615 617 622 627 634 639 642 647 652 658 663 668 674 680 686 694 700 705 710 716 727 744 755 762 773 783 791 800 808 814 820 825 830 832 834 842 842 842 840 840 842 847 854 865 880 892 897 900 907 915 923 934 948 962 974 981 985 987 991 997 1000 1002 1003 1004 999 991 983 976 966 951 933 921 911 898 886 875 863 853 844 837 828 820 814 806 799 793 788 782 776 768 759 752 746 737 727 715 710 709 717 730 742 752 761 771 780 785 790 795 803 813 817 817 
462 464 468 473 478 483 490 498 503 507 510 512 515 516 517 517 518 519 521 524 528 531 533 537 543 549 556 563 565 567 570 573 577 579 583 590 599 607 615 620 623 627 631 636 644 649 652 656 661 664 668 674 681 685 690 695 701 707 712 718 730 745 756 766 776 782 788 798 808 812 814 822 825 826 827 830 831 829 827 829 830 833 840 849 860 874 885 888 893 901 912 919 931 945 959 969 975 980 985 991 996 998 1002 1003 1002 996 988 978 967 955 941 927 915 906 895 884 877 868 858 849 840 832 825 817 807 799 794 787 781 775 767 759 750 740 731 724 721 724 731 740 750 760 769 775 783 789 796 804 811 816 819 819 
466 468 471 478 484 487 494 502 507 511 513 515 516 517 518 520 521 523 524 527 530 533 536 539 543 550 558 566 571 575 577 580 584 586 593 600 608 616 622 629 635 638 641 646 652 656 659 663 666 668 673 679 685 690 693 696 703 710 717 724 734 746 756 766 773 779 786 795 803 807 812 815 820 818 818 818 818 817 815 818 820 823 830 838 847 858 868 875 879 889 902 909 919 931 944 953 964 969 975 978 982 988 993 997 999 999 992 981 970 960 948 934 924 915 908 900 891 883 870 859 851 844 838 831 820 810 802 794 786 778 770 762 752 744 738 734 731 735 741 752 761 769 774 781 788 796 805 811 815 819 820 821 
471 474 478 484 490 494 498 505 509 512 515 517 518 518 518 520 523 525 527 529 532 536 540 543 546 553 563 570 575 581 586 588 590 598 605 612 618 623 632 640 645 649 653 657 661 664 668 671 674 677 679 683 687 691 694 698 704 713 719 726 737 747 757 764 771 778 784 789 794 799 799 800 802 804 807 808 808 804 806 808 812 815 823 828 836 848 856 857 863 873 887 898 906 916 927 937 945 955 962 963 967 974 981 987 991 994 992 984 973 965 954 946 936 927 918 910 903 896 885 877 869 861 853 845 836 825 812 802 793 784 776 767 758 749 744 741 740 744 752 763 772 778 784 790 797 805 812 817 820 822 823 824 
475 479 484 490 495 499 504 508 510 512 515 517 520 519 520 522 525 528 530 532 535 540 544 548 550 557 566 574 580 585 590 593 597 605 613 619 622 629 640 648 654 658 663 668 671 673 675 677 680 684 686 689 692 696 699 701 706 712 718 725 734 741 749 758 765 772 778 780 782 782 781 780 782 779 786 798 791 791 790 798 799 805 808 812 819 826 833 840 851 863 873 883 893 901 909 919 927 937 946 952 954 962 968 974 980 983 986 983 978 971 964 957 950 939 929 922 915 909 904 893 883 875 867 856 846 834 821 810 800 791 784 776 765 755 752 752 753 757 765 775 785 791 794 800 806 813 819 823 824 825 826 826 
478 485 491 496 499 503 507 510 512 513 516 518 521 524 526 528 530 531 532 534 537 542 547 550 555 561 568 575 583 588 593 598 601 609 616 623 628 634 643 652 658 663 668 672 676 679 680 683 685 686 689 691 695 700 703 706 710 714 717 724 729 733 739 747 757 763 765 766 767 767 765 765 763 762 763 770 770 770 770 772 781 788 792 796 802 809 817 829 836 849 861 872 884 888 897 905 911 917 929 936 944 949 957 963 969 975 980 983 984 981 975 969 961 951 939 931 925 919 910 903 894 884 873 864 854 843 830 817 808 798 789 781 774 768 764 765 769 772 776 786 794 798 803 810 817 823 826 828 828 828 828 827 
484 489 495 499 502 505 508 511 513 515 517 519 523 527 530 532 533 533 534 537 540 544 547 554 560 568 574 579 585 593 600 603 608 612 620 627 634 643 651 658 664 669 673 676 679 682 685 687 690 691 692 694 696 700 704 708 711 713 715 718 722 727 732 740 745 750 753 754 752 750 749 749 751 748 746 747 748 750 754 755 758 769 777 781 788 797 805 816 827 836 848 864 871 875 882 891 896 899 910 919 928 938 947 955 962 970 976 983 987 988 984 979 972 960 949 940 933 926 920 911 901 890 879 869 859 848 836 825 815 804 794 785 779 776 776 780 783 784 789 796 800 803 811 821 827 830 830 831 831 830 829 826 
487 492 498 502 507 511 513 515 515 517 519 522 526 531 534 536 536 537 537 540 542 544 548 555 565 573 580 586 592 598 603 609 615 621 627 634 640 647 655 662 668 674 678 681 685 687 689 693 696 698 700 704 704 704 705 708 710 711 711 712 714 718 723 728 732 734 737 737 735 731 729 728 728 729 728 729 728 730 736 743 744 750 758 767 776 788 797 808 818 824 835 849 856 861 869 876 882 891 897 905 918 929 938 948 958 967 976 985 992 994 992 988 982 974 964 953 943 935 929 918 909 897 884 873 863 852 841 832 823 813 802 793 790 789 790 793 796 800 802 807 810 815 822 826 829 830 830 830 830 829 827 824 
492 497 501 506 511 515 517 518 519 521 523 526 530 535 537 538 539 539 540 542 544 547 551 560 568 576 586 594 600 604 609 615 622 629 635 640 645 652 661 668 672 677 681 686 690 692 696 700 703 705 708 709 710 709 707 707 708 708 708 708 709 711 714 715 715 713 714 716 717 714 709 704 704 703 706 708 710 711 720 728 735 742 746 753 765 778 789 799 807 813 822 835 846 849 855 863 871 878 888 898 911 922 930 944 955 964 975 985 992 995 997 995 990 984 978 965 955 945 935 925 915 903 890 878 868 858 847 840 832 820 809 803 801 801 801 804 808 811 813 817 821 825 828 830 830 831 830 829 829 827 825 822 
495 500 504 508 513 516 519 520 521 523 525 528 531 536 538 538 537 539 541 544 548 551 559 568 574 583 592 600 606 611 615 619 625 633 640 644 651 660 669 674 677 678 682 687 693 697 701 704 707 709 710 712 713 712 709 706 706 704 702 702 702 701 700 698 698 698 699 700 700 695 690 686 684 685 688 694 698 702 708 718 726 731 737 745 752 765 776 785 796 805 815 827 836 840 846 854 863 871 881 893 909 919 927 942 954 964 974 985 994 1000 1005 1005 1000 993 983 972 960 950 940 930 920 908 895 884 873 862 853 845 837 830 821 816 814 814 815 815 818 820 822 826 828 830 832 832 832 831 831 829 827 826 825 821 
494 500 505 509 514 518 521 523 525 525 527 529 531 535 538 538 539 541 544 548 550 557 566 575 582 589 598 603 609 615 621 624 630 636 640 646 653 660 667 673 678 682 687 692 702 709 712 713 711 711 711 712 713 712 707 704 700 695 693 693 694 692 687 680 680 682 683 683 683 679 673 669 668 668 670 678 685 690 693 705 709 717 725 735 743 752 760 773 786 795 805 817 827 832 839 849 855 866 879 894 906 919 929 944 956 965 976 986 996 1004 1010 1011 1008 999 987 973 962 951 942 933 924 914 901 891 882 872 862 855 851 847 843 839 837 835 834 832 832 831 833 833 833 833 834 835 835 834 832 830 828 826 824 822 
495 499 504 509 514 517 521 524 525 527 528 530 532 535 539 541 542 543 545 547 551 559 568 578 587 598 605 612 617 621 626 630 633 638 644 649 655 663 670 676 681 689 695 702 708 715 719 717 716 715 713 711 709 705 700 693 687 681 680 682 680 678 672 666 662 662 663 664 661 659 658 655 654 654 656 657 666 671 681 688 696 701 712 724 734 745 754 761 773 784 795 807 817 830 841 847 854 863 883 897 909 919 933 948 959 968 978 988 998 1005 1010 1012 1011 1002 986 974 963 952 944 936 926 917 906 900 894 887 877 870 866 864 862 860 857 854 854 853 850 847 845 843 840 837 837 838 839 838 835 832 830 826 823 821 
498 500 504 509 514 518 521 523 525 527 529 534 536 538 541 543 543 544 546 550 554 560 570 581 592 602 613 619 622 627 631 632 636 643 650 656 662 669 675 682 692 698 702 706 711 715 717 717 716 714 711 705 701 691 681 675 669 669 667 665 663 657 654 648 644 645 648 648 646 645 644 643 642 644 647 651 656 662 672 683 689 697 708 721 730 742 750 756 768 779 791 801 816 829 840 849 856 867 884 899 912 926 939 951 963 969 980 990 999 1005 1008 1009 1005 998 987 973 961 950 945 940 932 923 913 908 904 901 893 885 880 877 875 874 873 871 870 868 866 862 859 855 848 844 843 841 839 838 835 832 828 825 821 815 
501 503 506 511 515 520 523 525 526 527 529 533 538 540 542 543 544 545 548 552 557 563 571 582 593 603 615 623 628 633 635 638 642 650 657 664 669 673 678 687 694 701 703 706 710 713 714 713 709 705 698 691 683 675 667 661 657 655 652 650 646 641 635 633 633 633 636 636 634 630 630 630 632 634 640 644 648 656 665 675 685 699 711 723 732 745 748 755 771 786 795 805 814 827 842 853 861 871 886 900 917 933 945 954 963 972 981 989 995 999 1001 1000 996 990 982 971 961 953 949 946 942 934 926 919 915 912 909 902 898 895 894 893 894 890 886 883 880 875 870 864 856 851 846 842 838 834 830 824 819 816 814 809 
505 507 508 510 514 518 523 526 527 528 529 533 538 540 542 544 545 547 550 553 559 566 574 585 594 604 615 625 632 638 641 645 649 655 659 664 670 673 676 681 691 698 702 706 706 708 707 704 700 695 686 674 663 657 652 647 642 638 635 631 628 626 625 624 625 624 623 621 617 616 619 623 624 627 633 638 648 656 665 676 694 705 717 727 743 752 752 759 778 792 800 814 827 834 847 858 866 876 891 908 923 938 948 956 964 974 982 987 989 991 992 992 988 982 976 969 963 960 956 954 951 945 938 935 929 927 923 918 915 914 913 913 908 905 901 896 890 884 878 870 861 850 845 840 835 829 823 816 812 809 805 799 
505 507 509 511 513 518 522 526 528 530 531 535 539 542 543 545 547 549 552 556 561 567 575 584 593 601 613 625 632 639 646 651 654 657 659 662 667 672 675 680 686 693 698 702 703 700 696 692 688 681 670 654 642 633 630 629 626 623 620 616 614 614 613 613 613 613 612 608 606 606 612 620 624 631 640 654 663 667 675 689 702 711 724 734 752 763 764 767 784 800 812 824 835 846 855 866 875 883 898 912 925 938 948 954 964 972 980 983 982 983 984 983 978 975 972 968 965 963 961 962 960 955 949 947 944 941 938 935 932 930 927 925 922 918 913 907 900 893 885 877 865 854 846 840 832 824 816 810 806 803 798 792 
505 508 510 514 518 521 524 526 528 530 532 535 540 543 545 546 548 551 555 558 561 566 573 582 590 598 609 622 632 641 650 653 656 659 662 664 669 674 677 680 684 690 695 696 694 689 683 674 667 656 642 633 622 618 615 613 610 607 605 605 605 604 603 602 601 598 598 596 596 602 613 622 629 642 652 665 675 684 689 701 710 719 732 746 762 775 778 787 793 808 821 833 844 854 866 878 886 894 905 918 928 939 946 953 960 966 971 973 975 975 973 971 971 971 971 970 968 965 965 966 967 964 961 958 957 956 955 952 949 946 944 939 936 931 926 914 904 897 889 878 866 854 844 836 828 820 813 808 803 797 793 789 
506 509 512 516 521 523 526 529 530 532 534 537 541 544 546 547 549 552 555 557 560 564 570 578 586 594 602 616 627 639 646 651 655 660 662 665 670 675 678 680 686 691 692 690 682 675 665 655 640 629 625 619 611 606 603 600 598 594 592 594 595 594 594 592 589 588 587 589 593 603 618 629 638 648 658 670 682 692 701 711 720 731 746 760 774 784 790 794 803 816 829 841 852 863 874 884 895 901 908 919 926 934 941 947 950 955 958 961 965 966 967 966 967 969 969 969 967 966 970 975 974 972 970 969 968 967 965 962 958 955 953 950 944 940 933 921 909 899 890 878 866 855 845 836 828 822 817 811 803 796 792 789 
507 511 515 518 521 524 527 530 532 534 539 541 544 545 547 549 551 553 556 558 560 563 568 575 583 589 596 607 620 631 640 646 654 659 660 664 668 672 677 682 687 691 690 686 674 665 656 641 628 620 614 608 602 597 593 588 585 582 583 584 586 586 583 580 577 578 586 590 596 611 625 637 644 650 660 672 686 697 706 717 729 742 760 772 785 791 795 799 809 822 836 846 854 864 875 883 895 902 908 917 924 927 932 935 939 942 946 952 953 956 959 961 962 964 965 966 967 969 974 979 980 977 977 978 978 975 973 969 966 962 957 952 947 941 931 921 911 902 890 879 867 857 848 840 833 828 823 818 810 803 797 794 
510 514 518 521 522 524 527 531 535 538 541 543 544 546 549 551 553 555 558 561 563 565 568 571 579 585 590 602 614 620 629 641 650 655 659 665 670 674 677 680 684 687 686 676 664 650 639 627 614 605 599 592 587 584 582 580 578 578 577 577 578 577 574 568 568 575 586 595 604 622 634 641 646 652 662 674 687 704 713 724 738 754 768 782 790 799 800 805 813 824 836 848 853 859 868 877 888 895 902 910 917 917 920 923 925 926 931 936 939 944 950 955 958 959 962 964 966 968 973 980 983 983 984 985 984 981 979 976 973 968 961 955 948 940 931 921 910 899 889 878 870 862 853 846 841 835 830 825 819 813 808 805 
512 517 520 523 525 528 530 533 537 539 541 543 545 547 550 551 553 555 558 561 562 563 565 567 570 577 585 593 605 610 615 628 642 647 653 659 666 669 670 670 670 667 661 653 640 629 619 610 600 594 587 580 572 571 571 571 570 571 572 570 569 567 565 565 569 581 594 605 613 627 634 640 645 653 667 680 695 708 721 733 746 758 770 780 787 792 799 806 814 820 832 843 849 855 860 869 879 885 888 895 901 904 905 908 910 910 910 918 925 932 937 947 951 954 956 960 962 964 970 978 984 986 987 987 985 984 982 980 977 972 964 956 948 940 932 920 909 900 890 883 876 870 863 855 848 843 837 830 826 823 819 815 
514 518 521 524 527 530 533 535 537 539 541 542 543 546 549 550 551 554 556 558 560 561 562 564 566 571 577 584 592 600 606 614 628 638 644 650 654 656 654 652 645 639 631 624 618 609 601 596 593 585 577 571 567 565 564 564 563 563 564 563 561 560 559 563 575 589 601 609 616 624 632 639 645 656 670 688 699 713 724 736 745 754 768 776 780 786 794 802 809 814 824 833 841 845 852 858 866 870 873 878 884 891 893 893 896 898 902 906 912 919 927 937 943 945 948 953 957 960 966 976 982 985 986 986 985 982 979 977 974 971 964 957 951 943 933 923 914 907 900 893 887 883 875 866 857 850 843 837 832 830 827 823 
516 520 523 525 528 531 534 536 538 539 541 543 546 547 548 549 550 552 555 556 558 560 561 561 563 566 571 574 581 590 598 607 618 628 635 639 640 640 639 633 625 616 607 597 591 588 586 584 579 572 566 561 562 562 562 562 561 560 559 557 555 553 558 565 576 591 603 610 615 623 630 640 644 653 669 683 698 713 723 732 740 750 760 767 775 783 788 794 800 805 813 820 825 831 838 844 851 855 859 866 872 874 877 882 883 888 893 898 902 908 919 929 935 937 940 945 951 957 963 971 979 984 986 985 983 980 976 974 971 967 962 957 951 944 938 928 919 913 908 903 899 893 887 879 868 858 852 847 841 835 831 829 
516 520 523 525 528 530 534 536 538 540 543 546 548 549 549 549 550 553 554 555 556 557 558 559 560 563 566 568 571 580 590 598 607 613 618 621 621 618 615 611 605 601 593 584 578 575 575 574 570 565 560 557 555 554 556 557 559 558 555 551 549 552 562 573 583 594 603 610 617 623 631 639 642 649 659 675 693 709 719 728 737 742 750 757 766 777 779 780 785 790 799 808 811 814 821 827 832 838 845 851 856 860 862 864 868 872 879 884 891 899 910 920 926 930 935 940 946 953 965 971 977 981 983 983 980 977 974 971 968 965 961 956 951 945 937 932 926 919 913 908 905 902 896 888 880 871 863 856 849 842 836 833 
512 518 524 528 530 532 535 537 540 542 544 548 549 549 549 549 550 552 554 554 555 556 556 557 558 559 558 560 562 567 576 586 593 595 596 600 600 599 597 594 593 589 583 577 571 566 562 559 556 556 557 555 553 551 550 551 553 554 552 551 552 558 570 579 585 592 601 608 616 623 628 634 638 642 653 669 685 700 709 717 726 736 741 747 755 760 764 769 771 775 784 791 797 799 804 808 814 821 828 833 839 843 848 849 852 857 863 872 881 890 898 909 918 926 933 939 944 952 963 970 975 978 981 981 979 974 971 969 967 962 959 956 953 946 939 932 927 923 917 913 911 907 901 893 885 879 870 862 855 847 840 835 
511 517 524 529 532 535 538 540 542 543 546 548 549 548 548 549 550 551 552 554 556 556 556 556 556 556 554 550 551 555 561 570 575 580 581 584 585 586 584 581 575 571 568 563 560 554 550 549 548 547 548 549 549 549 548 546 547 547 547 550 557 565 573 581 587 595 601 606 613 618 623 630 634 640 647 657 675 690 695 701 708 718 727 734 740 743 751 758 761 763 769 776 781 786 791 795 798 806 812 818 824 828 831 835 840 846 856 866 876 883 892 899 913 924 933 940 946 955 964 969 973 976 977 977 973 968 966 966 963 960 957 955 951 947 941 937 931 926 921 918 915 909 903 895 888 882 875 868 860 851 844 840 
514 519 525 529 532 537 540 541 542 544 546 548 548 547 546 547 547 548 550 552 554 555 554 553 552 551 550 550 551 553 556 559 566 570 573 573 572 571 568 563 560 556 553 551 548 545 543 542 541 539 542 544 544 544 543 542 541 541 544 549 556 563 570 579 588 596 602 606 610 613 619 625 630 637 641 648 660 678 682 687 694 702 711 720 728 731 738 746 746 749 756 762 765 773 780 785 788 793 799 805 811 816 819 824 830 843 854 865 873 881 892 903 915 924 936 945 952 960 967 972 973 972 971 968 964 960 959 959 959 957 953 950 947 943 939 936 931 927 923 921 916 909 901 894 889 884 878 872 863 852 844 837 
519 525 528 530 532 536 540 541 541 543 545 546 546 545 545 545 545 545 547 548 550 550 550 549 548 547 547 548 549 550 550 552 555 557 557 559 559 555 550 547 546 544 542 540 539 538 537 536 533 534 536 537 538 538 538 536 536 540 545 550 555 561 568 577 586 595 602 607 609 609 613 619 625 630 635 639 650 665 672 675 681 689 698 705 714 719 723 726 728 734 742 747 750 755 764 773 778 784 789 796 803 809 814 819 827 842 857 865 871 881 893 909 919 928 941 951 958 969 978 977 974 971 968 964 959 954 950 950 951 947 944 940 937 936 934 931 929 924 921 918 913 906 898 892 888 883 877 870 861 850 842 836 
521 526 528 530 532 537 539 540 541 543 545 545 545 545 545 545 545 545 544 545 545 546 546 546 546 545 543 544 544 545 546 546 547 547 548 548 549 547 543 539 537 535 534 532 529 529 530 530 530 529 529 530 531 530 530 532 535 542 547 551 556 561 567 576 584 592 599 605 606 605 608 614 621 625 628 632 639 648 659 666 669 674 680 687 695 701 703 704 713 720 728 731 734 738 744 755 765 772 780 789 798 805 811 815 824 839 856 867 875 883 899 914 924 940 958 966 977 987 991 986 977 973 968 963 956 948 941 938 936 934 929 926 926 925 924 921 919 916 913 909 905 899 892 886 883 877 873 867 858 850 842 835 
522 526 528 530 533 536 539 540 542 544 545 546 546 545 544 545 546 545 544 543 544 544 544 544 543 541 540 539 540 541 542 543 542 541 540 541 543 541 537 533 532 532 531 529 527 526 526 525 524 523 522 521 521 521 523 527 537 543 547 552 555 560 566 573 581 589 595 599 600 599 601 609 618 622 623 624 627 635 645 654 660 661 664 670 676 682 686 687 691 702 709 715 721 727 732 741 748 762 773 785 795 802 810 818 827 840 858 870 881 891 907 922 940 960 976 985 990 996 996 991 984 979 970 960 950 939 932 927 922 918 915 913 913 911 907 904 904 903 898 894 891 887 884 880 875 870 865 860 856 849 841 832 
521 525 528 530 533 536 539 541 543 544 545 546 546 545 544 544 544 544 543 543 543 543 543 542 541 539 537 536 536 536 538 537 537 536 536 536 536 534 532 530 530 532 530 527 525 523 522 520 518 516 514 513 515 517 521 527 534 540 544 549 554 558 563 569 576 582 587 589 590 590 593 600 608 612 614 618 623 627 634 642 649 652 654 657 663 671 675 677 682 689 700 707 713 720 728 735 745 753 771 787 796 803 812 823 833 844 861 874 888 900 913 931 951 968 983 991 996 1001 1001 994 985 975 965 956 945 932 922 914 906 901 897 895 893 890 887 887 887 882 878 876 875 876 874 872 868 863 860 857 853 847 839 830 
524 528 529 531 532 535 537 541 543 545 545 545 545 545 544 542 541 541 541 541 541 542 541 540 538 538 537 536 535 534 533 533 532 531 531 531 531 529 523 518 518 519 521 521 521 520 517 515 514 514 513 513 515 519 524 530 533 536 540 545 550 554 558 562 567 572 574 577 580 583 586 591 595 597 602 611 617 622 625 630 637 643 646 648 653 665 671 673 679 687 698 706 713 717 730 739 746 753 773 787 794 803 815 828 840 850 864 880 895 905 921 939 960 977 988 995 999 1006 1009 995 977 968 961 953 944 928 914 902 891 886 881 877 875 873 869 867 867 864 861 861 863 863 864 861 859 857 855 852 848 843 836 828 
524 527 528 529 529 531 535 538 542 544 543 543 543 544 543 541 539 539 538 539 540 541 541 540 539 540 541 541 539 536 534 532 531 530 527 525 523 520 517 513 511 510 510 513 515 512 509 507 508 511 512 514 516 520 525 528 531 533 536 540 544 548 552 554 558 560 562 564 570 576 580 584 587 589 594 605 611 614 617 620 627 633 642 642 649 661 673 680 690 698 705 714 719 727 737 746 754 764 780 787 794 808 822 837 849 861 873 888 900 911 925 944 964 982 995 1002 1006 1011 1006 990 973 960 950 942 932 922 909 895 888 880 872 864 860 857 852 850 848 847 846 848 849 849 849 849 848 848 847 844 840 833 826 818 
521 523 525 527 529 531 534 538 540 541 540 540 540 541 540 539 538 537 537 538 539 540 540 540 540 542 543 542 541 538 535 534 533 531 524 518 513 511 508 506 506 505 506 505 505 504 502 501 504 508 512 516 518 520 522 524 526 529 532 535 539 542 545 548 551 553 556 558 564 571 577 581 584 586 591 600 607 612 617 625 625 636 645 654 658 669 683 692 699 707 717 727 733 741 748 756 764 777 788 796 804 817 830 842 856 866 877 892 904 917 933 950 968 987 1000 1007 1011 1014 1006 991 973 955 942 931 925 919 908 895 883 872 862 853 844 836 835 834 831 829 832 835 836 837 836 836 837 837 836 833 828 822 815 808 
520 521 523 526 530 533 536 538 540 540 539 538 538 538 537 536 535 534 535 537 539 539 539 539 541 541 542 541 539 537 534 532 530 527 522 514 508 502 500 499 499 500 501 502 501 500 498 498 503 509 512 515 518 520 520 520 522 525 527 530 534 539 543 546 549 553 557 563 569 577 584 589 595 597 601 608 613 623 636 641 642 652 659 667 674 683 692 703 710 717 729 738 746 753 762 771 779 790 800 807 818 830 838 850 861 871 880 897 910 924 941 958 972 987 1001 1010 1013 1010 1004 988 968 954 942 932 923 915 904 887 874 866 856 844 834 826 822 819 817 815 817 820 822 823 824 823 824 825 821 818 815 810 805 799 
520 521 523 527 531 533 537 540 540 539 537 536 536 535 534 533 532 532 533 536 538 539 538 539 540 541 541 539 538 537 534 530 527 522 518 511 503 498 494 492 492 494 495 496 497 495 495 497 501 506 509 511 513 516 518 518 519 522 523 526 530 537 543 546 549 555 564 570 578 585 593 604 610 617 620 626 628 639 650 656 662 671 676 685 691 705 713 722 726 731 737 747 757 766 776 782 793 804 813 820 830 841 850 860 871 879 892 905 913 930 951 968 980 991 1004 1011 1013 1005 992 980 968 954 939 929 921 909 895 882 871 862 852 839 827 817 809 805 803 803 804 806 810 810 810 809 809 805 803 801 799 796 791 786 
521 522 524 527 531 534 536 537 537 536 535 534 533 533 532 531 531 532 533 535 535 536 537 539 539 539 540 539 536 534 532 529 525 521 515 507 500 494 491 489 488 489 491 491 491 492 495 497 502 504 506 507 510 513 515 517 519 521 523 527 532 536 543 546 549 556 565 574 582 591 600 608 617 626 633 637 640 649 660 669 675 680 689 694 702 715 724 730 734 737 739 750 765 777 787 794 804 816 824 835 844 852 862 874 883 894 904 912 923 939 961 976 984 992 1000 1009 1013 1010 1003 989 973 956 940 927 916 903 890 880 871 860 844 832 823 811 799 793 792 791 788 791 795 796 795 792 791 789 787 785 783 781 776 771 
520 522 525 528 531 532 534 534 533 532 532 532 531 531 531 530 531 532 532 532 530 531 535 537 538 538 538 538 535 532 529 526 523 519 512 506 502 498 493 488 486 485 486 486 487 489 493 497 499 502 504 506 507 510 514 517 520 523 525 529 533 538 542 547 552 559 568 578 587 595 605 615 622 631 637 642 647 655 666 676 684 690 695 701 707 718 725 730 735 739 745 754 768 788 799 806 816 828 837 842 852 865 875 883 895 905 913 922 933 949 966 980 996 1008 1015 1015 1020 1020 1012 1000 983 965 946 931 917 900 887 879 873 860 843 829 819 810 799 790 782 777 774 773 773 774 776 775 774 772 771 769 767 764 762 757 
517 522 526 528 529 530 530 530 530 530 531 531 531 530 529 529 530 532 532 530 528 530 533 537 538 537 537 535 534 531 526 522 518 514 508 502 499 495 490 484 481 481 481 482 486 489 490 493 496 499 502 504 507 510 513 517 520 524 526 529 533 538 544 549 556 564 572 581 590 597 609 620 627 633 639 646 653 660 670 680 687 692 697 704 712 719 724 729 735 742 749 757 769 789 800 808 820 833 841 848 857 872 881 890 901 912 920 930 941 955 970 987 1013 1030 1038 1041 1036 1022 1010 999 987 970 950 938 925 906 891 882 873 862 848 832 819 806 798 790 778 766 763 761 758 757 757 759 756 756 755 752 749 748 746 742 
517 521 523 525 527 528 528 529 529 529 529 529 529 528 527 528 529 531 531 530 530 530 533 534 534 534 533 533 531 527 521 516 512 508 505 501 497 489 482 479 477 477 477 480 485 487 489 491 494 497 500 503 506 510 513 515 519 522 527 531 537 543 547 552 559 568 575 582 590 598 611 623 628 634 642 650 657 666 672 679 686 692 696 701 711 718 723 729 736 743 750 757 764 779 796 806 816 827 839 850 861 875 885 895 904 913 923 933 944 956 970 989 1008 1026 1043 1044 1040 1026 1011 997 986 969 951 940 926 914 902 885 871 860 849 834 818 809 799 787 774 764 755 752 748 747 745 743 741 742 743 742 741 736 731 727 
516 520 521 523 525 527 528 528 528 527 526 526 526 526 527 527 528 529 529 529 530 531 530 530 530 529 527 527 526 523 517 512 508 503 499 494 489 482 477 474 472 474 474 478 483 487 489 492 495 498 500 502 505 509 512 513 517 523 528 534 540 545 549 556 563 572 578 584 591 599 612 625 630 636 645 654 661 666 673 677 682 688 695 702 708 715 720 726 736 742 747 752 758 767 781 798 812 822 833 846 857 869 883 894 903 912 922 934 946 959 971 986 1002 1020 1032 1036 1032 1025 1009 994 984 973 955 938 924 914 905 891 874 862 852 837 823 811 799 791 779 764 753 745 741 738 735 732 728 727 729 730 728 723 717 714 
516 518 519 521 523 525 525 525 525 524 523 521 522 523 525 527 526 525 525 525 525 526 525 525 525 523 521 519 518 517 513 507 501 496 491 486 480 474 472 470 469 469 472 475 482 487 490 493 495 497 500 504 508 512 513 515 519 525 531 537 543 547 551 557 565 573 580 587 594 600 612 625 631 637 645 652 659 664 670 674 677 683 688 696 705 711 717 723 732 737 741 745 749 756 769 790 807 819 828 838 850 866 880 892 899 908 919 932 945 957 970 985 1002 1018 1025 1026 1021 1012 1002 993 984 972 957 942 928 916 905 891 879 865 855 843 832 819 806 792 781 770 758 749 741 733 726 721 716 714 715 713 713 709 705 703 
517 518 519 521 522 522 523 522 523 522 520 519 520 521 522 523 524 523 521 519 518 519 520 521 522 520 516 512 510 507 503 497 492 488 483 477 472 469 467 467 467 469 473 477 480 485 490 492 494 496 499 505 509 513 516 519 521 526 533 538 544 549 553 560 569 577 584 589 595 603 614 624 632 637 643 648 653 660 665 669 672 676 681 687 695 703 711 716 721 728 733 738 741 748 759 776 797 813 823 830 844 860 875 884 892 901 912 926 938 953 967 979 995 1011 1016 1014 1010 1004 998 991 983 971 959 945 932 923 909 895 882 871 860 849 840 830 815 798 784 772 761 753 746 737 727 718 712 708 705 704 703 700 696 694 
517 520 521 521 521 521 521 521 521 520 518 518 518 517 517 518 518 518 518 517 516 515 515 515 516 515 510 506 502 498 493 486 481 474 468 464 462 461 462 463 465 469 473 476 479 483 488 491 493 495 498 503 508 511 516 520 524 527 531 536 543 550 557 565 574 581 586 589 596 606 615 624 630 635 641 647 652 656 660 662 664 668 672 679 687 694 703 708 712 718 725 730 733 746 757 769 783 805 819 828 839 855 869 877 885 893 904 919 930 943 961 971 983 997 1002 999 994 993 991 986 979 972 963 951 941 928 914 900 890 879 867 854 843 836 827 805 784 775 765 756 751 743 734 722 712 708 704 700 698 693 689 685 
518 521 521 521 520 520 519 520 520 518 516 515 515 515 514 514 514 515 515 515 513 511 509 508 508 505 502 498 493 488 480 474 468 462 457 456 455 454 457 460 463 468 473 475 478 481 484 487 490 493 499 504 506 510 515 519 524 528 531 536 544 553 560 567 575 581 584 586 593 604 614 621 625 630 637 642 646 650 653 656 657 659 664 670 679 687 695 701 704 711 720 725 731 746 761 769 780 797 814 826 835 850 864 870 876 888 902 914 926 942 955 965 973 983 985 983 982 981 977 973 972 970 966 960 948 934 917 902 890 882 872 857 846 840 828 810 793 776 764 756 752 747 738 729 718 709 703 698 693 688 681 681 
516 519 521 521 520 519 520 520 521 518 515 512 512 512 511 510 510 511 511 509 505 503 502 501 499 497 492 486 481 473 468 462 458 455 453 451 451 452 456 459 464 469 471 473 476 478 481 484 487 492 497 501 505 509 513 517 522 527 531 536 545 553 558 565 572 576 579 584 589 599 609 614 619 622 628 632 633 636 643 649 652 653 658 668 676 684 689 696 701 709 718 724 732 749 760 771 782 797 811 823 833 846 859 866 874 885 900 912 924 940 948 953 959 964 968 966 964 962 960 959 956 957 957 954 947 933 917 903 892 882 872 861 850 842 835 823 806 792 779 766 758 751 742 731 721 711 700 693 688 684 681 679 
514 517 518 518 518 519 518 518 518 516 513 510 508 507 506 505 504 505 504 500 494 493 493 492 490 487 481 473 466 460 455 451 447 446 447 449 450 454 459 463 467 470 471 472 474 477 480 484 487 490 495 500 503 507 511 513 516 522 529 536 544 551 556 560 565 568 573 579 585 591 600 607 610 612 615 620 623 625 631 642 650 655 663 671 678 685 690 695 704 713 723 729 735 747 760 771 784 797 809 822 833 845 858 866 875 885 898 908 917 931 940 942 944 948 947 944 943 943 943 943 943 945 945 945 941 935 921 905 894 884 872 861 852 845 839 828 812 799 788 778 766 757 748 737 724 714 705 696 691 687 684 680 
512 513 514 515 516 516 515 514 512 510 509 506 501 498 497 495 491 488 489 488 485 482 482 481 480 478 473 465 455 450 444 441 439 442 444 447 451 455 459 464 466 467 467 469 472 476 480 484 486 490 495 500 503 506 509 511 513 518 525 533 540 545 550 556 561 564 568 575 579 582 590 600 602 604 607 611 616 621 628 639 651 658 665 673 680 685 692 700 708 718 726 734 741 750 762 777 789 799 810 824 837 850 859 868 877 886 896 902 909 919 925 929 930 929 928 928 929 930 930 929 929 931 933 932 932 926 914 900 892 883 874 862 853 846 839 827 814 802 793 784 772 759 751 742 733 723 714 703 696 691 686 679 
510 512 514 514 514 513 512 510 507 504 502 499 493 487 485 483 480 478 478 477 475 473 470 469 469 470 466 455 445 439 435 434 437 439 442 445 450 453 458 461 463 464 464 466 469 473 478 482 486 490 494 499 500 503 507 510 513 516 522 528 534 540 545 551 557 560 564 571 574 578 581 588 593 596 599 605 613 621 631 643 652 659 666 673 679 686 694 703 710 719 727 735 743 755 766 782 796 806 815 825 838 852 861 867 879 888 895 900 902 905 910 913 912 909 910 910 913 913 911 910 913 916 918 917 918 914 903 891 887 880 871 859 850 842 833 824 813 804 795 784 775 767 757 749 739 728 720 709 698 691 685 679 
512 515 515 513 511 510 508 505 501 497 494 487 480 476 473 472 471 471 471 470 468 465 463 461 460 457 451 442 437 433 431 434 437 439 442 444 449 452 456 460 461 461 461 464 468 473 477 480 484 487 491 495 499 501 502 506 511 515 521 526 531 536 543 549 553 557 562 567 572 573 574 579 582 587 593 603 614 622 633 643 652 661 667 674 680 686 695 705 712 720 730 737 746 756 767 781 796 810 820 826 835 850 859 865 875 884 890 893 893 893 895 897 895 889 886 887 888 886 887 892 897 900 903 903 904 901 892 887 881 875 866 857 846 837 831 824 815 806 796 786 778 768 759 751 743 732 725 715 703 693 685 679 
515 516 515 512 508 506 505 500 494 490 487 480 474 468 464 462 460 461 461 461 460 458 456 453 450 447 442 436 431 429 429 435 438 439 441 445 449 453 454 456 456 457 459 462 467 472 477 480 483 487 489 493 497 498 499 504 510 517 523 527 530 535 539 545 551 554 556 560 564 565 567 572 577 584 593 606 616 625 634 644 655 663 669 676 683 690 696 704 713 723 732 741 749 761 771 783 799 812 821 828 835 846 856 863 871 878 883 883 883 883 883 880 878 873 867 864 866 871 874 877 880 881 883 888 890 887 883 879 874 868 860 852 842 834 828 822 814 804 797 789 780 771 761 751 743 737 729 721 708 695 687 681 
511 512 512 509 507 505 503 499 494 489 484 478 471 464 458 453 452 451 450 451 451 449 447 445 442 438 433 428 424 424 428 432 436 438 440 443 447 449 450 450 450 454 457 461 467 474 477 479 482 486 490 492 494 495 499 501 505 512 517 522 525 528 532 537 543 546 549 551 556 559 563 569 580 588 601 612 620 629 639 650 659 666 673 679 686 692 697 706 714 722 731 742 752 765 777 789 801 814 823 830 839 849 857 864 872 876 876 876 877 874 871 865 862 858 854 850 851 856 860 864 861 860 865 870 873 873 874 868 862 856 849 842 834 828 822 815 806 801 794 785 777 771 763 754 746 738 731 724 712 700 690 682 
506 508 509 509 507 506 503 499 491 484 478 471 465 458 452 448 446 445 442 442 443 443 441 438 434 429 424 419 418 420 426 429 433 438 441 443 445 445 445 446 448 451 455 461 467 473 476 477 479 483 487 490 490 492 494 498 500 501 506 511 516 520 525 529 535 539 542 547 553 560 567 578 587 599 610 616 623 634 645 656 665 671 675 681 689 696 704 711 717 724 733 744 754 763 779 790 803 813 824 830 839 847 855 864 870 872 871 868 867 864 857 852 849 846 841 837 836 836 837 841 841 842 846 852 855 858 860 856 850 842 836 830 824 820 814 808 801 796 789 781 776 771 763 755 748 741 733 726 716 707 699 685 
500 502 505 506 505 502 499 492 483 477 471 464 459 453 447 443 441 441 439 437 435 432 428 428 422 418 415 415 415 420 426 430 436 441 444 445 443 441 440 442 446 450 455 460 466 471 473 474 475 478 482 484 485 486 489 493 496 498 501 504 510 515 519 524 530 536 542 548 556 566 572 584 597 608 617 623 631 639 649 661 670 673 679 689 699 708 714 719 724 731 740 749 758 765 779 791 802 811 820 828 835 843 850 859 865 867 865 862 858 852 847 842 836 833 828 827 823 821 819 821 822 823 827 833 837 839 843 844 839 835 828 820 815 811 808 802 797 793 787 781 775 770 762 754 748 743 736 727 721 714 702 688 
490 495 498 499 499 496 492 486 479 470 461 456 451 448 443 438 436 435 432 431 428 425 422 418 413 410 409 410 413 421 427 433 438 440 443 443 441 437 436 440 445 450 455 460 464 468 471 472 474 476 478 480 482 483 484 489 493 496 499 502 506 509 514 523 533 537 546 551 564 573 582 590 605 615 621 626 634 643 651 662 671 678 686 697 710 717 722 728 732 740 749 758 766 773 785 796 804 812 820 827 835 843 851 856 860 860 857 853 850 843 837 831 826 820 815 809 808 807 806 806 807 809 813 819 824 826 830 832 831 828 823 816 809 805 800 795 791 788 783 777 771 765 759 753 748 743 735 729 723 716 702 688 
476 482 486 490 490 487 483 478 470 463 454 447 444 441 437 434 430 427 424 423 422 419 414 409 405 404 406 409 415 424 432 435 437 437 437 437 435 433 433 438 443 449 454 460 463 466 469 471 473 474 475 477 479 481 484 486 490 494 498 502 505 509 513 522 533 545 553 563 571 582 590 596 607 618 622 627 635 642 651 662 673 682 690 701 712 722 730 736 740 748 757 765 772 781 792 801 810 817 822 828 839 848 852 855 856 855 853 848 841 833 827 822 816 809 801 796 794 794 795 796 797 798 802 809 814 814 817 821 822 819 815 809 804 798 792 788 785 780 775 770 765 760 756 753 749 743 736 730 724 714 703 692 
464 469 474 476 476 474 470 466 460 454 449 443 438 435 431 427 424 421 416 413 411 406 400 397 396 399 406 413 420 430 433 433 432 430 429 429 431 432 436 439 443 447 453 458 461 464 465 467 469 471 471 470 473 477 480 484 487 490 496 501 506 513 520 528 536 545 556 563 570 582 594 600 610 619 625 630 636 642 649 659 671 682 691 704 717 728 735 741 746 754 761 769 779 788 799 808 815 820 825 833 843 850 852 855 854 851 849 845 836 828 819 812 805 797 791 786 782 780 777 781 782 785 791 798 801 802 805 809 809 807 802 798 794 791 787 783 780 775 771 766 760 757 754 752 749 744 736 730 725 716 707 698 
451 456 462 463 463 462 459 454 451 446 442 438 434 429 426 424 419 414 408 404 401 396 392 390 392 397 409 418 425 428 428 428 426 424 424 425 429 432 436 440 442 446 452 456 458 460 460 460 463 465 465 466 469 475 479 482 485 490 495 500 506 514 522 529 537 545 553 559 568 580 593 599 608 617 625 632 637 643 648 658 669 680 692 706 719 728 738 743 749 757 768 779 789 801 811 818 823 827 832 839 845 850 853 852 849 847 843 836 827 818 809 802 795 784 778 776 773 767 766 764 768 771 776 782 787 790 790 792 793 790 785 782 779 779 779 777 775 771 766 762 756 752 751 750 744 738 734 730 724 717 709 702 
442 446 449 450 452 451 448 445 441 437 433 431 429 426 422 418 414 407 399 395 392 389 388 392 393 403 415 421 423 423 421 421 421 422 423 427 431 434 436 438 441 447 452 456 457 457 457 458 460 462 463 465 471 476 481 484 488 493 498 502 508 515 521 527 535 543 550 556 565 576 586 595 602 611 622 629 635 642 649 656 666 677 688 701 713 725 736 746 753 760 774 787 798 810 819 826 833 836 841 845 848 851 853 851 847 843 839 828 817 806 797 790 782 773 767 763 760 758 756 757 758 759 761 766 772 775 776 775 774 773 770 766 763 760 762 766 766 764 759 754 751 749 747 743 740 736 731 727 721 714 709 705 
430 436 437 437 438 438 437 434 432 429 426 425 424 422 417 412 404 396 391 387 386 384 387 391 401 408 415 418 417 416 415 415 419 422 427 432 437 438 438 440 444 447 450 452 454 454 454 455 458 460 461 466 472 479 486 492 495 501 507 511 518 521 524 530 537 542 547 554 562 571 579 588 597 609 618 624 630 640 649 655 663 674 686 697 708 720 733 745 754 763 775 786 797 809 819 829 839 845 849 850 851 852 853 852 848 842 834 824 812 801 792 784 774 767 762 756 750 747 748 746 745 744 744 751 758 761 761 761 760 759 758 753 747 745 747 753 758 757 752 749 747 745 742 740 738 735 729 721 716 714 710 706 
418 420 425 426 429 432 429 428 425 421 420 420 419 416 413 406 394 386 383 382 381 381 383 391 399 406 409 411 412 413 415 417 421 424 429 433 436 437 438 439 441 444 445 446 446 448 448 451 455 460 463 468 476 485 494 500 505 513 520 525 528 530 535 540 541 546 550 555 560 568 577 586 595 605 614 620 627 637 646 653 661 671 684 695 705 717 729 740 752 763 774 785 793 804 818 830 844 851 856 855 854 854 853 851 847 842 832 820 809 798 790 782 772 764 758 750 740 735 735 733 731 731 732 735 741 747 749 749 744 741 741 738 734 735 737 741 747 747 747 745 742 740 738 737 736 731 724 719 716 714 712 707 
406 409 411 415 420 423 424 421 420 418 416 414 413 412 408 401 389 379 377 377 378 378 383 390 397 402 406 409 411 415 417 419 420 422 426 430 433 434 435 435 436 437 440 441 442 443 446 450 456 462 467 475 484 493 503 508 515 523 530 535 540 541 545 550 553 555 559 561 564 569 576 585 592 601 608 616 624 633 642 652 662 671 682 693 705 716 726 737 748 759 770 783 793 802 816 832 842 851 857 859 859 857 854 849 846 837 825 813 803 796 787 775 766 759 751 742 735 730 727 722 722 722 723 725 729 732 734 732 731 729 726 723 722 726 728 731 735 738 738 736 736 736 735 734 730 724 719 714 714 713 710 706 
401 402 404 408 414 416 416 415 415 414 410 408 407 405 402 395 383 375 372 372 376 380 382 388 394 400 404 406 409 412 413 412 413 415 419 425 427 430 430 431 432 435 437 440 443 445 449 454 461 469 475 483 493 500 508 516 523 530 538 545 549 554 558 561 563 567 572 575 574 576 581 587 593 596 606 614 622 631 642 653 663 673 683 693 702 715 727 735 745 756 767 779 791 803 817 828 837 846 854 857 857 856 851 847 844 834 821 812 803 793 784 775 765 755 749 742 733 726 722 718 714 714 714 715 716 719 720 721 720 719 718 716 716 717 718 720 725 729 729 730 730 729 730 727 724 720 717 713 712 711 709 706 
396 396 397 399 405 409 409 409 410 409 404 402 400 397 392 385 376 369 367 370 373 375 378 383 387 392 396 399 401 403 404 404 405 407 411 415 420 423 425 426 428 431 436 439 442 448 454 459 468 478 483 489 497 504 512 521 529 536 543 551 558 564 568 571 576 580 587 591 590 591 598 603 607 610 612 618 624 634 644 653 663 673 684 693 701 710 724 736 745 755 763 775 787 801 816 827 834 840 847 850 850 850 847 845 839 830 821 812 801 791 782 773 762 752 745 738 729 722 716 713 710 706 705 706 706 706 708 711 709 706 704 706 708 708 707 710 715 721 724 724 721 721 717 718 715 712 709 708 708 708 707 705 
387 390 388 391 392 397 400 402 403 401 398 396 393 388 385 380 373 366 366 368 370 371 374 378 383 386 389 392 393 394 396 397 399 401 404 409 413 416 419 422 426 430 434 439 447 453 457 462 472 484 490 495 501 508 517 526 533 540 548 557 566 572 577 582 586 592 598 602 605 606 614 619 623 627 628 628 632 639 649 658 666 675 683 693 702 712 722 733 744 752 761 772 784 797 813 825 831 836 840 843 846 846 846 839 831 825 819 809 798 790 781 770 759 750 741 732 724 715 711 709 704 700 699 699 698 698 698 699 697 694 692 694 696 696 697 701 706 712 716 713 711 708 708 707 707 705 702 701 703 705 704 703 
379 381 381 381 383 386 391 394 394 392 390 386 382 380 377 373 368 365 364 366 366 365 367 374 377 380 382 385 388 390 393 395 397 399 402 405 409 413 417 424 429 432 436 443 451 458 461 465 476 487 494 499 504 513 523 529 536 546 553 562 571 579 584 589 596 601 607 611 616 621 626 631 636 639 640 640 643 648 656 664 673 679 686 694 704 713 722 731 740 752 761 768 777 791 805 818 825 830 833 835 837 840 837 830 825 821 816 809 800 791 782 771 761 752 741 731 722 716 709 703 697 691 687 686 685 684 684 685 684 683 683 683 684 684 688 694 700 704 706 704 702 701 700 700 700 699 697 697 700 701 702 702 
373 376 377 376 375 380 385 387 384 384 379 374 371 370 369 366 363 362 362 362 361 361 363 367 372 375 380 383 387 391 396 399 401 402 403 406 411 416 422 429 435 439 444 451 457 463 468 475 482 491 497 502 510 519 526 533 540 549 558 565 574 581 587 594 602 611 615 620 625 632 636 641 646 651 652 652 655 660 665 671 677 683 691 699 708 715 721 732 743 751 759 768 775 785 798 806 814 823 825 826 828 830 829 824 821 817 812 807 798 790 781 770 760 752 742 734 722 713 706 698 691 683 677 675 673 672 673 673 673 672 672 672 675 676 679 685 692 695 694 693 692 694 696 693 693 692 691 692 694 696 698 697 
369 373 371 369 369 372 376 376 374 371 368 363 360 360 359 358 358 357 358 359 359 361 365 370 374 380 383 386 389 393 398 404 408 411 413 415 417 423 429 435 439 445 452 458 463 468 475 481 487 493 500 508 515 522 528 534 542 551 559 566 575 583 590 597 604 613 620 627 634 640 646 652 659 662 664 667 671 674 677 680 685 691 698 706 714 719 725 734 741 748 754 762 774 785 791 797 805 812 816 818 820 823 824 821 818 815 809 803 796 787 778 769 760 750 741 733 722 710 701 696 691 683 676 670 667 665 664 665 664 662 662 663 665 667 670 674 678 681 683 683 684 687 687 685 684 684 685 686 688 689 689 690 
363 365 365 363 361 362 364 364 361 359 358 354 352 351 349 350 351 353 356 357 359 363 370 376 382 387 390 392 395 400 406 411 417 421 424 425 428 431 436 440 444 448 454 458 463 470 476 483 488 495 502 510 518 524 529 536 543 550 558 566 576 584 590 596 605 613 622 631 640 647 652 659 665 670 674 680 684 688 691 694 699 704 709 715 721 727 732 736 742 747 753 760 768 777 784 790 796 803 806 808 812 816 818 817 815 809 807 802 795 787 779 771 761 751 742 732 719 706 697 691 689 684 676 668 662 658 657 656 653 652 653 654 654 656 659 660 662 667 670 672 673 673 675 676 678 679 679 679 679 679 681 681 
353 354 354 354 353 352 353 353 351 349 348 348 349 347 346 346 349 352 355 357 362 369 377 384 390 394 397 400 406 412 416 420 423 427 431 433 435 438 442 446 448 451 454 458 463 469 477 483 488 495 502 511 517 525 532 539 544 550 558 567 575 583 590 595 603 613 623 633 643 651 658 665 673 679 684 689 694 700 706 710 714 718 722 727 733 736 739 743 747 753 758 762 768 773 779 784 790 791 794 799 800 804 807 809 808 806 802 797 791 785 779 771 762 753 743 733 721 710 701 695 687 679 671 663 657 654 651 648 646 645 646 645 643 645 648 650 652 654 658 661 663 665 663 667 671 673 673 672 669 669 670 670 
345 343 344 345 345 345 344 344 344 343 341 342 343 344 344 345 348 352 355 361 368 376 385 393 399 403 407 411 416 421 423 425 428 431 434 435 437 439 445 449 453 456 459 463 468 474 481 485 491 497 505 509 517 525 533 540 546 552 560 569 576 583 588 595 605 614 623 633 641 650 659 670 679 685 690 697 703 708 714 721 727 732 738 745 746 747 751 751 756 762 764 768 770 773 776 777 779 781 785 786 786 787 792 795 796 796 794 790 786 782 777 770 762 752 743 734 725 715 707 698 690 680 670 661 655 650 646 640 639 641 642 639 636 638 642 644 644 646 651 655 657 657 658 660 664 666 665 664 662 660 659 658 
339 338 335 334 334 334 337 338 337 338 339 338 339 341 343 345 349 355 364 371 379 384 389 396 403 409 413 416 420 422 424 427 430 432 436 439 441 444 450 455 460 464 467 470 476 482 486 489 493 502 506 511 516 525 532 538 546 555 564 573 580 585 590 599 609 617 624 632 640 649 659 671 680 688 698 705 710 714 721 729 736 741 747 751 754 758 763 766 767 767 766 767 770 774 775 776 775 776 776 775 774 775 779 781 780 782 785 783 781 777 773 767 760 751 742 734 727 717 706 697 688 681 671 659 649 643 637 635 635 636 638 636 635 637 641 640 640 641 645 650 650 650 652 656 660 660 659 656 655 653 650 649 
335 335 332 328 328 329 331 333 332 332 334 337 339 347 349 351 356 365 373 381 385 388 393 398 405 412 416 417 418 421 424 427 430 432 435 441 445 449 455 460 466 472 476 480 486 489 493 494 497 502 508 513 520 528 534 540 548 557 568 578 584 590 597 605 614 622 628 635 643 652 662 671 681 692 703 711 715 720 728 737 743 749 754 757 761 766 770 773 772 770 768 769 770 772 773 773 772 771 770 767 765 767 768 768 768 769 771 771 770 769 767 760 754 745 738 733 726 716 703 693 687 679 668 657 648 641 633 630 627 629 631 632 633 635 639 639 637 638 642 644 644 646 649 654 657 657 654 650 648 645 644 642 
329 327 324 322 323 326 327 330 331 332 336 342 349 356 362 362 364 372 379 385 389 393 400 405 409 413 415 418 420 421 425 428 432 434 436 441 447 451 456 463 471 478 484 489 493 497 501 504 505 510 514 521 526 534 538 544 553 564 577 587 595 601 607 613 620 627 634 643 652 658 668 675 684 696 707 714 719 724 732 739 747 755 761 765 769 774 777 777 776 774 773 771 770 769 768 768 768 767 766 764 762 757 757 758 756 756 757 757 757 757 755 751 745 738 732 727 718 706 695 687 680 674 667 658 649 641 633 626 622 618 622 625 628 633 634 634 633 635 638 640 641 643 645 649 652 653 652 647 642 640 637 634 
320 319 316 315 316 318 323 327 331 336 342 351 357 363 367 370 373 377 383 389 395 402 409 414 416 417 419 421 423 426 429 432 436 438 438 442 449 453 460 468 475 483 490 496 501 506 511 515 520 524 527 534 541 545 547 552 562 574 584 595 602 609 615 622 628 634 642 650 659 668 674 680 690 699 708 717 722 729 736 745 754 760 766 770 775 779 782 782 782 781 779 776 770 767 766 764 762 761 761 761 758 754 750 746 745 743 744 745 745 746 745 741 736 730 724 716 708 699 689 682 676 670 662 655 646 639 630 624 617 613 615 617 621 625 626 625 627 631 635 637 639 642 643 645 647 649 647 643 638 635 632 630 
314 314 316 314 314 318 325 332 337 343 349 356 361 366 371 374 378 382 388 395 400 408 415 419 420 421 423 425 429 431 433 435 437 440 442 447 454 461 468 474 481 488 495 502 508 515 519 525 533 537 540 548 553 555 557 563 571 580 591 599 607 614 622 630 637 642 648 657 666 674 679 687 695 704 714 718 724 731 742 751 758 763 767 773 778 781 782 783 783 783 781 777 774 771 766 760 755 752 750 750 752 749 744 740 735 732 731 732 735 733 731 728 725 720 712 705 696 689 683 677 672 667 660 652 645 637 629 621 614 609 607 610 614 618 619 619 621 627 632 634 637 642 644 645 644 644 643 637 632 629 627 626 
314 317 319 322 325 329 336 341 347 352 358 362 368 373 375 376 381 386 393 399 404 410 416 420 421 422 423 425 429 433 435 436 439 441 444 450 460 469 475 480 485 493 501 506 512 521 527 535 542 545 548 554 561 564 567 572 579 588 597 606 614 621 629 639 648 652 657 665 674 681 687 693 700 710 718 723 729 738 748 755 761 765 770 776 780 782 783 783 783 782 778 774 770 766 760 753 748 743 741 741 740 739 735 730 725 721 719 718 719 719 716 712 709 705 699 689 682 676 673 670 666 662 655 649 643 638 629 620 613 608 605 604 606 612 614 615 616 620 624 629 634 639 642 641 638 637 636 631 626 623 622 622 
316 321 326 333 337 340 343 349 352 356 361 366 371 375 376 376 381 386 392 399 405 410 414 418 421 423 424 427 430 432 435 438 441 445 449 455 463 470 478 484 491 498 504 511 519 527 535 543 548 552 557 563 571 576 581 586 591 599 608 618 626 631 636 645 656 662 668 676 684 689 694 701 708 717 724 731 739 746 752 758 764 767 771 775 780 782 782 782 780 778 774 768 763 758 752 744 739 736 733 730 729 726 722 717 713 709 706 705 706 703 701 699 697 693 685 677 672 668 666 662 658 651 647 643 637 631 625 620 614 608 601 596 597 601 606 608 611 615 621 625 630 633 635 636 634 633 630 628 623 618 617 616 
320 327 335 342 347 349 352 356 358 360 365 367 372 376 378 381 384 389 392 397 403 407 411 416 421 424 427 429 432 433 437 441 446 450 457 463 467 474 482 488 494 500 506 514 523 532 540 547 555 561 568 576 583 589 591 598 605 613 622 631 637 641 646 654 663 672 679 686 690 695 704 712 719 727 733 739 746 751 756 761 765 769 772 777 779 779 778 776 774 773 768 762 757 751 744 738 734 729 725 720 718 714 709 706 703 700 697 695 693 692 690 688 686 682 677 673 668 665 662 658 652 644 638 634 631 627 622 617 612 606 600 593 590 594 599 604 607 613 618 622 625 628 631 632 631 628 625 621 617 613 612 611 
328 333 340 348 354 359 362 364 367 370 372 374 376 380 385 387 389 392 393 396 401 405 408 415 419 424 427 429 430 434 438 444 449 456 462 468 473 479 485 490 495 504 511 519 529 538 545 553 562 570 578 588 595 598 605 608 616 622 632 643 651 654 658 665 674 683 690 696 701 706 715 724 731 737 741 748 752 756 759 764 768 770 773 776 775 773 770 768 765 763 760 756 750 744 740 735 729 724 719 715 714 711 706 700 695 692 689 688 686 684 681 679 675 673 671 670 666 663 660 654 649 642 638 634 629 624 619 615 609 603 597 591 587 588 592 599 604 610 613 616 619 622 626 626 625 623 620 616 611 608 608 606 
337 341 346 351 360 365 369 372 375 377 381 382 382 386 392 394 397 399 398 400 402 405 408 414 419 422 425 428 433 438 442 448 453 460 467 473 478 482 487 492 501 508 513 522 534 543 551 559 568 578 589 597 602 609 617 623 626 632 643 653 659 663 668 676 687 695 702 708 714 718 727 737 743 745 750 754 757 759 761 764 766 767 769 767 765 762 760 758 756 754 751 748 744 740 736 732 727 722 717 713 710 707 701 694 689 686 683 682 680 677 674 671 667 665 667 666 664 659 653 648 644 640 637 633 628 623 618 612 607 602 596 589 585 584 588 592 599 605 609 612 614 615 616 617 616 616 615 612 607 605 603 600 
346 349 350 356 362 369 373 376 378 382 385 386 387 391 394 398 402 407 408 409 411 412 414 416 421 425 429 434 438 441 445 450 456 464 470 475 481 487 492 498 506 512 516 524 536 549 558 566 577 588 597 604 611 621 631 637 642 647 656 665 670 675 682 691 699 706 710 716 724 729 735 743 745 748 753 758 761 762 762 763 764 761 761 758 755 753 751 749 748 747 744 741 739 735 731 726 722 720 717 711 704 697 691 685 682 679 677 675 672 669 668 665 660 662 662 662 658 653 647 641 637 635 632 629 625 620 615 609 603 597 590 584 581 582 585 589 594 599 604 608 609 609 609 608 609 609 607 605 602 598 594 592 
352 354 355 359 366 371 375 378 380 384 389 391 393 395 398 401 406 410 414 417 419 421 421 424 426 429 434 438 441 444 448 453 459 467 474 480 484 490 495 505 514 518 522 528 539 550 562 572 582 592 600 608 618 631 642 651 656 665 673 681 687 693 699 705 712 717 724 730 736 740 744 748 749 751 755 759 760 759 757 757 754 752 749 747 746 745 742 740 739 737 736 734 732 730 726 722 718 716 714 707 698 689 680 678 676 676 676 672 669 666 663 658 654 653 655 656 653 648 642 637 633 630 627 624 621 616 611 603 595 589 583 577 574 575 580 584 590 596 599 601 602 603 603 602 601 600 601 600 597 594 592 590 
355 355 359 364 369 372 375 378 382 386 390 393 397 399 402 405 407 411 414 418 422 423 425 425 427 430 434 439 444 447 451 457 462 471 479 485 492 495 500 509 518 526 531 536 542 553 565 576 585 595 603 612 623 637 649 659 669 675 684 691 696 702 709 718 727 731 735 741 747 750 753 756 757 756 756 756 754 751 748 746 741 738 735 731 733 734 730 729 729 727 726 725 724 721 719 715 712 709 706 699 692 684 678 673 674 675 673 670 667 664 662 657 651 648 649 650 648 643 638 634 630 626 622 619 615 610 604 596 586 579 575 571 568 568 572 577 582 586 589 593 594 595 594 594 594 594 595 594 592 590 589 588 
356 358 361 367 370 372 375 380 384 387 390 395 398 401 404 407 409 411 414 418 421 424 424 426 429 432 436 442 448 451 456 461 468 475 484 491 496 499 504 512 522 531 538 544 549 558 571 581 590 597 606 618 629 640 653 666 676 684 691 697 704 710 716 727 736 742 745 749 751 753 756 758 758 758 758 754 750 744 740 734 728 724 721 720 718 718 716 716 717 716 715 713 711 709 707 705 702 698 695 691 685 680 676 673 672 672 668 663 660 660 659 656 650 646 645 645 643 639 635 632 628 623 618 613 606 600 595 588 579 574 570 567 565 564 568 571 575 576 577 580 584 586 588 588 587 588 590 591 589 587 587 586 
361 363 367 370 372 373 376 380 385 389 392 394 397 401 405 407 410 413 416 419 422 425 427 430 436 439 443 447 453 456 461 469 475 481 487 495 500 504 508 514 522 531 539 546 553 561 572 582 591 599 610 621 632 645 657 668 678 688 695 703 710 715 721 730 739 744 747 749 751 752 754 755 755 755 754 749 742 737 732 725 720 716 713 711 709 705 702 702 705 706 705 702 700 698 697 695 692 689 686 684 680 678 676 675 671 668 664 658 654 652 652 653 649 643 641 641 640 638 635 631 627 623 616 608 600 594 590 584 578 573 569 566 564 564 565 566 567 568 569 571 574 579 581 582 581 582 585 586 586 585 585 583 
363 367 370 373 375 376 379 383 387 391 393 396 399 404 406 409 411 414 417 422 426 429 431 436 441 445 448 452 457 462 467 475 481 487 493 498 503 508 513 518 523 529 538 546 553 561 574 584 592 602 613 621 634 648 661 673 683 691 700 707 714 719 725 729 735 739 742 744 746 748 751 753 752 751 747 741 735 730 725 720 714 710 706 702 697 693 691 691 693 695 695 692 688 687 686 685 684 681 680 678 676 675 674 672 670 665 659 654 651 648 648 648 645 641 638 638 638 637 634 630 625 620 614 606 597 592 588 583 577 571 566 563 563 562 560 558 556 556 559 562 565 569 572 573 575 577 579 581 581 581 581 580 
