ncols        186
nrows        102
cellsize     30
1982 1971 1959 1949 1940 1933 1926 1915 1905 1903 1903 1896 1891 1887 1881 1875 1867 1860 1856 1853 1847 1842 1838 1837 1837 1837 1838 1840 1843 1847 1854 1863 1873 1886 1897 1907 1919 1930 1936 1941 1946 1952 1956 1960 1966 1972 1978 1985 1990 1996 2002 2006 2008 2010 2010 2012 2015 2019 2022 2025 2028 2031 2033 2035 2037 2037 2037 2037 2038 2039 2040 2041 2041 2040 2040 2041 2043 2043 2043 2041 2038 2038 2039 2041 2041 2042 2043 2046 2047 2050 2051 2053 2054 2055 2057 2059 2061 2064 2067 2069 2071 2072 2071 2071 2070 2068 2069 2069 2072 2075 2076 2076 2074 2071 2068 2064 2066 2067 2066 2063 2061 2059 2060 2060 2061 2064 2067 2069 2071 2074 2077 2079 2076 2072 2065 2059 2055 2050 2046 2042 2040 2037 2034 2031 2027 2021 2014 2004 1997 1990 1975 1948 1922 1901 1881 1870 1863 1848 1832 1815 1798 1779 1763 1754 1741 1717 1694 1674 1655 1642 1625 1600 1576 1558 1548 1541 1535 1529 1524 1520 1517 1516 1517 1518 1519 1517
1960 1950 1941 1932 1925 1919 1910 1901 1896 1891 1883 1876 1868 1865 1862 1855 1846 1840 1837 1834 1831 1825 1819 1822 1826 1829 1832 1838 1843 1851 1860 1873 1885 1895 1904 1915 1925 1932 1939 1944 1950 1955 1962 1969 1977 1982 1988 1995 2001 2008 2015 2017 2018 2015 2014 2013 2018 2022 2024 2025 2028 2031 2033 2034 2036 2037 2038 2038 2039 2040 2041 2042 2043 2045 2045 2045 2045 2045 2044 2043 2041 2041 2044 2045 2046 2047 2050 2052 2053 2052 2051 2051 2052 2054 2056 2058 2061 2064 2066 2068 2069 2069 2068 2067 2066 2067 2070 2072 2074 2076 2077 2075 2072 2067 2062 2060 2060 2062 2060 2058 2056 2056 2056 2057 2058 2061 2063 2064 2065 2067 2069 2070 2066 2060 2054 2049 2044 2039 2035 2036 2036 2034 2031 2028 2028 2023 2015 2006 1997 1988 1980 1968 1931 1897 1892 1884 1868 1846 1818 1799 1789 1773 1754 1738 1722 1705 1686 1665 1646 1627 1607 1584 1563 1552 1543 1538 1534 1530 1525 1523 1521 1521 1522 1520 1519 1519
1939 1932 1924 1916 1909 1902 1894 1887 1880 1872 1862 1851 1848 1846 1842 1838 1833 1826 1820 1819 1817 1814 1815 1816 1820 1826 1834 1843 1855 1866 1883 1894 1900 1913 1925 1934 1941 1945 1949 1956 1965 1973 1982 1992 2001 2007 2014 2023 2037 2040 2042 2040 2040 2037 2035 2036 2037 2037 2036 2036 2036 2040 2040 2043 2044 2047 2047 2048 2047 2047 2047 2049 2051 2050 2050 2049 2049 2048 2046 2044 2044 2047 2049 2050 2050 2051 2055 2059 2059 2058 2055 2052 2053 2055 2056 2059 2061 2064 2065 2066 2065 2064 2063 2063 2064 2067 2071 2074 2074 2074 2074 2072 2068 2063 2059 2059 2060 2059 2057 2053 2052 2051 2051 2051 2052 2053 2054 2055 2055 2058 2061 2058 2055 2048 2043 2040 2037 2034 2032 2031 2031 2029 2027 2025 2023 2022 2020 2011 2003 1995 1987 1984 1981 1956 1895 1849 1836 1815 1804 1797 1779 1759 1742 1725 1710 1694 1667 1641 1622 1604 1589 1573 1555 1541 1538 1535 1532 1531 1528 1527 1527 1527 1524 1522 1520 1518
1918 1913 1908 1899 1890 1879 1873 1868 1862 1852 1842 1836 1833 1827 1823 1820 1816 1812 1808 1808 1808 1811 1816 1822 1828 1834 1849 1866 1882 1898 1913 1924 1931 1938 1946 1954 1960 1963 1972 1982 1999 2012 2019 2028 2031 2035 2040 2046 2051 2054 2054 2053 2053 2052 2051 2053 2053 2054 2055 2057 2060 2061 2062 2062 2061 2064 2064 2061 2057 2054 2052 2053 2053 2053 2052 2051 2051 2051 2050 2048 2049 2051 2053 2054 2055 2057 2060 2063 2064 2063 2059 2056 2056 2057 2059 2060 2062 2063 2064 2063 2062 2060 2060 2060 2063 2067 2071 2073 2073 2072 2069 2065 2060 2056 2054 2056 2058 2057 2053 2050 2047 2045 2043 2042 2044 2045 2047 2048 2053 2056 2055 2052 2047 2042 2037 2036 2034 2032 2030 2030 2028 2026 2023 2020 2018 2017 2014 2011 2006 2002 1998 1996 1993 1964 1929 1881 1828 1815 1804 1794 1783 1765 1746 1729 1711 1691 1659 1626 1606 1589 1574 1558 1548 1541 1538 1535 1533 1530 1529 1528 1526 1525 1523 1521 1521 1520
1909 1902 1893 1883 1872 1864 1859 1854 1846 1836 1827 1822 1816 1812 1809 1806 1802 1801 1800 1803 1807 1818 1828 1843 1856 1872 1887 1899 1913 1928 1942 1948 1953 1957 1965 1975 1986 1998 2007 2016 2029 2037 2042 2045 2049 2053 2055 2055 2055 2053 2053 2053 2054 2056 2056 2058 2060 2061 2064 2068 2069 2071 2069 2069 2070 2070 2069 2067 2063 2058 2056 2055 2054 2054 2055 2056 2056 2056 2055 2054 2054 2055 2055 2057 2059 2061 2064 2066 2067 2065 2062 2060 2059 2060 2060 2060 2060 2060 2060 2059 2058 2058 2057 2058 2061 2065 2070 2071 2069 2067 2063 2058 2053 2047 2047 2049 2049 2047 2044 2042 2041 2039 2037 2037 2039 2043 2045 2048 2051 2052 2050 2045 2039 2034 2031 2030 2028 2026 2025 2025 2023 2021 2018 2015 2014 2014 2011 2009 2009 2009 2006 2000 1981 1951 1915 1890 1873 1845 1823 1808 1793 1774 1754 1736 1716 1681 1645 1614 1585 1573 1561 1552 1543 1539 1537 1535 1534 1532 1531 1529 1526 1522 1521 1521 1521 1522
1895 1887 1877 1866 1859 1853 1845 1837 1829 1819 1813 1808 1804 1801 1803 1803 1804 1805 1810 1816 1824 1837 1850 1868 1887 1900 1913 1928 1944 1954 1963 1968 1971 1977 1985 1996 2009 2016 2022 2028 2035 2041 2046 2050 2054 2057 2059 2058 2056 2053 2052 2053 2056 2059 2060 2062 2065 2067 2068 2069 2072 2073 2074 2075 2077 2080 2079 2078 2074 2072 2066 2060 2057 2057 2058 2059 2058 2057 2057 2056 2057 2058 2059 2060 2062 2064 2065 2067 2067 2065 2063 2061 2061 2060 2058 2057 2056 2056 2057 2056 2055 2055 2055 2055 2056 2061 2065 2065 2065 2062 2059 2054 2048 2043 2042 2043 2042 2039 2037 2037 2036 2034 2032 2032 2035 2040 2042 2042 2041 2038 2035 2032 2026 2020 2018 2020 2020 2019 2019 2020 2020 2019 2017 2016 2016 2015 2014 2013 2012 2011 2004 1985 1956 1926 1906 1894 1875 1858 1833 1806 1787 1770 1754 1726 1685 1654 1625 1601 1581 1567 1556 1547 1539 1536 1536 1536 1536 1534 1531 1529 1527 1524 1522 1522 1522 1522
1882 1874 1865 1858 1849 1838 1829 1821 1814 1808 1803 1801 1799 1798 1799 1804 1809 1814 1821 1828 1840 1852 1869 1890 1905 1921 1932 1946 1959 1971 1980 1985 1995 2005 2013 2021 2025 2030 2034 2038 2041 2044 2048 2051 2053 2055 2057 2056 2055 2053 2053 2056 2060 2063 2065 2066 2068 2067 2068 2069 2070 2074 2078 2081 2084 2088 2092 2092 2091 2087 2084 2075 2066 2062 2062 2061 2060 2059 2059 2060 2061 2061 2062 2064 2066 2068 2068 2067 2065 2062 2061 2061 2059 2058 2056 2054 2053 2054 2055 2056 2055 2053 2052 2052 2053 2054 2056 2059 2059 2057 2056 2051 2044 2039 2038 2038 2036 2034 2032 2032 2033 2030 2026 2027 2032 2038 2040 2036 2032 2027 2024 2020 2015 2009 2008 2011 2013 2014 2015 2016 2017 2017 2017 2016 2014 2013 2011 2011 2010 2006 1991 1957 1929 1917 1904 1886 1869 1846 1824 1810 1789 1771 1740 1691 1664 1648 1626 1602 1580 1560 1549 1540 1536 1535 1537 1538 1538 1536 1533 1530 1529 1528 1526 1524 1524 1524
1871 1863 1854 1845 1835 1825 1817 1809 1803 1800 1797 1796 1796 1798 1800 1805 1812 1820 1828 1837 1853 1870 1887 1908 1927 1944 1954 1961 1973 1987 1997 2005 2012 2020 2027 2033 2037 2037 2039 2042 2044 2046 2046 2048 2047 2047 2048 2049 2049 2050 2055 2059 2062 2064 2065 2066 2066 2065 2066 2066 2069 2072 2076 2081 2084 2089 2092 2095 2097 2097 2093 2089 2081 2074 2067 2063 2062 2062 2063 2063 2064 2064 2065 2067 2069 2071 2070 2067 2063 2061 2060 2059 2058 2056 2054 2054 2054 2054 2056 2057 2056 2054 2052 2051 2050 2050 2052 2055 2056 2055 2051 2044 2039 2035 2034 2034 2032 2030 2029 2029 2027 2023 2022 2023 2028 2034 2034 2031 2025 2020 2016 2013 2009 2005 2006 2009 2012 2013 2014 2015 2015 2014 2012 2011 2008 2006 2004 1999 1990 1974 1952 1930 1914 1902 1887 1870 1853 1835 1816 1809 1805 1787 1719 1666 1641 1636 1613 1590 1570 1554 1541 1536 1534 1536 1538 1540 1539 1536 1534 1532 1532 1531 1529 1527 1526 1526
1858 1850 1844 1837 1828 1818 1810 1802 1797 1794 1793 1794 1795 1798 1802 1808 1818 1830 1839 1852 1865 1879 1901 1919 1939 1953 1964 1973 1978 1988 1997 2001 2005 2012 2019 2025 2031 2035 2035 2035 2036 2036 2036 2035 2035 2036 2038 2039 2041 2045 2051 2057 2060 2063 2065 2066 2067 2067 2068 2071 2072 2072 2076 2080 2083 2086 2088 2091 2092 2093 2092 2091 2089 2083 2077 2072 2068 2066 2065 2065 2064 2063 2064 2067 2069 2069 2068 2065 2062 2061 2060 2060 2058 2056 2056 2056 2055 2055 2056 2056 2055 2053 2052 2050 2048 2048 2050 2051 2051 2049 2046 2040 2035 2033 2032 2032 2032 2029 2026 2023 2020 2019 2019 2021 2024 2026 2025 2022 2017 2013 2009 2007 2005 2003 2002 2003 2006 2009 2011 2014 2015 2015 2010 2004 2001 1998 1988 1976 1961 1945 1930 1914 1900 1887 1874 1858 1844 1830 1814 1807 1802 1771 1672 1609 1605 1599 1583 1571 1564 1554 1543 1537 1535 1537 1540 1541 1539 1537 1534 1533 1533 1533 1531 1529 1529 1528
1849 1842 1834 1827 1820 1812 1805 1797 1793 1792 1792 1794 1797 1798 1802 1810 1822 1835 1846 1857 1869 1883 1908 1920 1934 1947 1958 1965 1969 1975 1982 1988 1993 1999 2006 2011 2016 2020 2022 2024 2025 2026 2026 2027 2027 2027 2029 2030 2031 2035 2041 2047 2054 2059 2063 2067 2068 2070 2074 2075 2075 2076 2078 2080 2082 2083 2084 2084 2085 2086 2086 2086 2085 2084 2081 2079 2076 2075 2073 2071 2069 2066 2066 2068 2069 2069 2069 2068 2068 2070 2068 2067 2063 2062 2060 2059 2057 2056 2056 2055 2052 2049 2047 2047 2045 2044 2044 2045 2045 2044 2039 2036 2032 2030 2029 2029 2027 2024 2020 2017 2016 2016 2016 2017 2017 2017 2015 2012 2008 2004 2001 2000 1999 1998 1996 1995 1997 2000 2004 2006 2006 2003 2002 1996 1988 1979 1969 1959 1946 1932 1918 1906 1890 1876 1862 1848 1834 1823 1813 1810 1753 1658 1621 1614 1607 1602 1590 1574 1566 1559 1547 1540 1537 1537 1537 1537 1536 1536 1536 1535 1535 1534 1532 1532 1531 1530
1836 1831 1824 1816 1809 1804 1798 1793 1790 1790 1791 1794 1797 1800 1805 1811 1823 1833 1843 1850 1862 1882 1905 1917 1929 1938 1947 1955 1961 1966 1972 1977 1984 1989 1994 2000 2006 2010 2010 2011 2012 2013 2015 2016 2017 2018 2019 2021 2022 2025 2032 2038 2045 2053 2059 2063 2066 2070 2075 2077 2077 2076 2076 2078 2080 2079 2078 2078 2078 2079 2080 2080 2080 2079 2079 2079 2078 2079 2081 2083 2081 2078 2077 2077 2080 2082 2086 2088 2089 2087 2084 2080 2075 2070 2066 2063 2061 2059 2058 2055 2051 2045 2042 2040 2039 2039 2039 2039 2040 2040 2037 2034 2030 2028 2027 2025 2022 2018 2015 2014 2015 2015 2014 2013 2011 2010 2009 2005 1998 1993 1991 1990 1989 1987 1987 1987 1989 1991 1994 1994 1993 1991 1990 1979 1963 1954 1946 1937 1928 1916 1903 1885 1866 1850 1835 1817 1812 1780 1761 1747 1659 1635 1628 1624 1615 1604 1591 1572 1560 1551 1544 1540 1538 1537 1537 1536 1536 1537 1537 1538 1536 1535 1533 1532 1532 1531
1823 1819 1814 1808 1803 1798 1793 1788 1787 1788 1789 1793 1797 1802 1806 1810 1818 1828 1834 1840 1853 1873 1897 1913 1920 1928 1936 1944 1951 1956 1959 1964 1969 1979 1985 1989 1995 2000 2001 2001 2002 2003 2004 2006 2008 2006 2007 2008 2010 2015 2023 2032 2041 2048 2053 2058 2063 2069 2072 2072 2072 2072 2073 2074 2074 2074 2072 2072 2073 2074 2074 2074 2073 2073 2075 2075 2077 2080 2084 2087 2088 2086 2087 2089 2091 2093 2096 2098 2098 2095 2089 2083 2079 2075 2072 2069 2067 2064 2062 2057 2051 2044 2038 2037 2036 2036 2036 2036 2037 2038 2037 2034 2030 2026 2023 2020 2018 2015 2015 2015 2017 2017 2016 2014 2013 2012 2008 2002 1994 1988 1984 1981 1977 1975 1974 1975 1975 1975 1972 1968 1966 1963 1945 1928 1930 1928 1921 1913 1903 1894 1887 1869 1847 1832 1818 1791 1756 1710 1695 1685 1667 1655 1651 1643 1628 1609 1588 1565 1553 1545 1542 1539 1537 1537 1537 1538 1539 1539 1539 1538 1536 1534 1533 1532 1532 1531
1812 1809 1804 1799 1797 1793 1786 1781 1780 1783 1786 1790 1795 1801 1803 1806 1813 1818 1827 1837 1850 1863 1889 1907 1912 1916 1930 1937 1942 1942 1948 1951 1959 1967 1975 1981 1985 1990 1993 1996 1999 2001 2003 2005 2006 2005 2002 2001 2003 2006 2016 2027 2037 2046 2051 2055 2059 2063 2065 2066 2066 2066 2066 2067 2068 2067 2068 2069 2070 2071 2071 2070 2070 2069 2070 2072 2075 2077 2080 2083 2086 2088 2093 2096 2098 2100 2100 2101 2099 2096 2093 2088 2083 2081 2082 2080 2077 2072 2069 2063 2055 2047 2041 2038 2038 2037 2036 2036 2035 2035 2035 2032 2030 2025 2020 2019 2019 2020 2018 2018 2019 2019 2018 2017 2017 2014 2009 2001 1993 1983 1977 1969 1964 1959 1955 1952 1952 1950 1946 1942 1933 1917 1908 1906 1901 1891 1886 1883 1881 1880 1872 1862 1840 1816 1788 1770 1725 1702 1694 1688 1676 1672 1678 1674 1653 1629 1602 1577 1561 1550 1544 1539 1537 1536 1537 1539 1540 1540 1539 1537 1535 1534 1533 1532 1532 1531
1804 1799 1794 1792 1790 1787 1782 1776 1774 1777 1781 1787 1793 1797 1800 1804 1808 1814 1822 1835 1850 1860 1879 1898 1905 1913 1927 1935 1937 1938 1942 1950 1958 1965 1971 1976 1980 1985 1989 1993 1996 1999 2001 2003 2004 2004 2003 2003 2003 2007 2015 2024 2034 2042 2047 2052 2056 2058 2059 2059 2058 2059 2060 2062 2063 2065 2067 2068 2068 2069 2069 2068 2067 2066 2066 2068 2071 2074 2077 2081 2086 2093 2099 2104 2108 2110 2111 2109 2107 2106 2104 2100 2094 2090 2088 2086 2083 2077 2072 2068 2061 2052 2046 2043 2041 2041 2039 2036 2034 2032 2029 2027 2024 2021 2019 2020 2022 2021 2020 2020 2020 2019 2019 2018 2017 2012 2003 1994 1983 1970 1957 1949 1943 1938 1934 1934 1933 1930 1926 1920 1911 1900 1890 1880 1873 1867 1863 1860 1860 1860 1855 1842 1826 1806 1777 1755 1727 1716 1709 1717 1719 1722 1721 1702 1680 1641 1601 1582 1562 1556 1551 1544 1539 1538 1537 1539 1539 1540 1538 1536 1536 1535 1534 1533 1533 1533
1795 1789 1785 1783 1782 1780 1775 1772 1772 1774 1778 1784 1790 1793 1797 1800 1803 1810 1818 1831 1844 1858 1872 1889 1899 1910 1925 1933 1934 1938 1944 1951 1958 1962 1968 1973 1977 1981 1986 1991 1994 1996 1997 1999 1999 2001 2002 2002 2005 2010 2018 2027 2034 2041 2045 2050 2053 2055 2056 2056 2056 2056 2058 2061 2063 2066 2068 2069 2068 2068 2067 2066 2064 2064 2064 2067 2068 2071 2076 2083 2091 2095 2098 2104 2110 2115 2118 2123 2123 2125 2122 2118 2109 2101 2096 2091 2086 2084 2081 2077 2071 2060 2052 2047 2044 2041 2038 2034 2029 2025 2020 2017 2017 2016 2015 2015 2016 2017 2017 2018 2018 2019 2017 2016 2012 2005 1995 1984 1971 1952 1937 1931 1924 1921 1918 1918 1916 1912 1909 1905 1899 1889 1880 1869 1857 1851 1845 1841 1837 1833 1827 1818 1809 1791 1760 1743 1741 1738 1747 1756 1756 1749 1735 1723 1712 1705 1678 1663 1653 1593 1548 1547 1545 1543 1541 1541 1542 1540 1538 1538 1537 1536 1534 1534 1535 1538
1786 1782 1779 1777 1776 1774 1770 1769 1770 1773 1777 1781 1785 1789 1793 1796 1801 1806 1817 1828 1840 1853 1869 1884 1895 1908 1922 1929 1936 1940 1946 1951 1957 1961 1965 1969 1973 1978 1982 1987 1990 1991 1992 1995 1996 1997 1999 2002 2008 2015 2021 2027 2035 2040 2044 2047 2050 2053 2055 2057 2057 2058 2061 2064 2065 2068 2069 2069 2068 2067 2065 2062 2059 2059 2062 2064 2066 2067 2072 2080 2086 2089 2094 2101 2108 2113 2118 2124 2129 2131 2131 2128 2124 2117 2109 2101 2099 2096 2094 2091 2081 2070 2059 2050 2043 2038 2033 2028 2022 2014 2009 2007 2007 2006 2004 2004 2004 2006 2009 2010 2011 2008 2007 2006 1999 1989 1980 1970 1956 1940 1928 1919 1913 1907 1904 1902 1900 1896 1893 1891 1884 1873 1868 1861 1852 1842 1829 1820 1814 1809 1812 1814 1805 1785 1774 1768 1762 1762 1764 1765 1765 1760 1750 1740 1736 1731 1722 1714 1648 1574 1550 1543 1543 1543 1543 1542 1541 1541 1540 1539 1538 1536 1533 1534 1536 1541
1779 1776 1773 1771 1769 1768 1767 1766 1767 1770 1773 1776 1779 1783 1789 1795 1803 1810 1816 1826 1836 1848 1871 1884 1895 1911 1920 1929 1937 1943 1946 1950 1956 1960 1962 1965 1969 1974 1978 1982 1985 1986 1989 1993 1996 1998 2001 2005 2011 2017 2022 2028 2033 2037 2039 2042 2044 2048 2051 2055 2056 2059 2063 2067 2070 2071 2071 2070 2069 2066 2064 2062 2061 2062 2063 2065 2067 2070 2072 2076 2080 2085 2090 2097 2103 2108 2113 2119 2124 2127 2130 2132 2132 2127 2119 2108 2104 2103 2100 2094 2083 2070 2059 2049 2040 2033 2028 2022 2014 2007 2000 1996 1994 1993 1992 1992 1993 1996 1999 1998 1996 1992 1991 1990 1985 1976 1966 1951 1936 1924 1913 1905 1898 1896 1895 1895 1893 1891 1887 1883 1874 1862 1858 1853 1844 1831 1818 1811 1809 1816 1818 1817 1809 1800 1791 1784 1778 1774 1772 1770 1767 1763 1757 1749 1739 1727 1716 1711 1655 1567 1542 1542 1542 1542 1542 1542 1541 1540 1540 1540 1539 1538 1536 1536 1539 1545
1774 1770 1767 1766 1765 1763 1763 1763 1764 1767 1769 1773 1776 1782 1787 1793 1801 1810 1818 1828 1839 1860 1877 1886 1899 1911 1920 1929 1937 1943 1946 1952 1956 1958 1960 1962 1965 1970 1975 1980 1983 1985 1988 1993 1997 1999 2004 2008 2014 2018 2022 2024 2028 2032 2033 2035 2038 2042 2046 2050 2054 2058 2063 2068 2070 2072 2073 2074 2073 2071 2070 2069 2068 2068 2069 2070 2071 2073 2074 2075 2078 2083 2089 2093 2098 2102 2107 2113 2118 2122 2125 2127 2127 2124 2119 2112 2106 2102 2096 2089 2081 2070 2058 2047 2036 2027 2020 2015 2008 2000 1992 1987 1982 1981 1980 1979 1981 1984 1985 1983 1978 1976 1975 1974 1969 1960 1945 1930 1917 1908 1902 1897 1891 1889 1890 1892 1894 1894 1892 1885 1876 1868 1862 1853 1841 1833 1825 1818 1817 1817 1818 1815 1810 1805 1801 1797 1791 1784 1779 1773 1766 1760 1754 1741 1726 1716 1707 1633 1556 1544 1543 1544 1544 1544 1544 1543 1542 1541 1541 1541 1541 1540 1539 1539 1543 1549
1771 1768 1767 1766 1763 1761 1760 1760 1761 1763 1766 1771 1777 1782 1786 1792 1800 1811 1822 1834 1853 1869 1879 1891 1901 1912 1921 1930 1938 1943 1949 1954 1957 1958 1960 1962 1965 1970 1975 1980 1983 1986 1990 1994 1998 2000 2004 2010 2014 2017 2019 2020 2023 2026 2027 2030 2034 2038 2043 2049 2053 2057 2062 2067 2069 2071 2073 2075 2077 2077 2077 2076 2075 2074 2074 2073 2072 2073 2075 2076 2077 2081 2085 2088 2092 2097 2100 2105 2110 2113 2116 2120 2118 2116 2111 2105 2099 2094 2088 2082 2075 2064 2051 2038 2027 2017 2010 2007 2002 1996 1989 1982 1978 1973 1970 1968 1968 1969 1967 1963 1962 1960 1958 1953 1947 1940 1929 1916 1908 1902 1898 1895 1894 1893 1892 1892 1896 1899 1900 1896 1892 1880 1864 1853 1849 1845 1839 1832 1826 1824 1823 1820 1817 1814 1810 1807 1799 1789 1780 1770 1762 1756 1745 1732 1715 1703 1700 1675 1603 1559 1558 1554 1548 1547 1545 1544 1544 1543 1543 1542 1541 1541 1540 1542 1546 1551
1767 1765 1764 1764 1762 1761 1760 1760 1760 1760 1765 1770 1777 1783 1789 1796 1805 1814 1827 1840 1858 1870 1885 1897 1906 1914 1920 1930 1940 1945 1950 1956 1959 1960 1960 1962 1967 1972 1975 1978 1982 1986 1990 1995 1997 1998 2000 2003 2008 2011 2013 2015 2018 2021 2024 2027 2033 2039 2045 2050 2054 2059 2064 2068 2070 2071 2071 2074 2076 2077 2078 2077 2077 2076 2074 2071 2070 2071 2073 2074 2076 2078 2080 2081 2083 2086 2091 2096 2097 2100 2102 2104 2104 2102 2097 2092 2087 2082 2079 2076 2068 2058 2046 2034 2022 2012 2006 2002 1998 1994 1989 1984 1978 1973 1967 1963 1962 1957 1953 1950 1949 1949 1944 1939 1933 1925 1916 1910 1905 1902 1899 1898 1897 1897 1896 1897 1901 1905 1906 1907 1905 1901 1893 1883 1876 1865 1853 1846 1841 1836 1831 1826 1823 1823 1823 1817 1806 1789 1778 1771 1761 1751 1737 1715 1703 1698 1699 1701 1652 1587 1571 1562 1554 1547 1545 1545 1545 1545 1544 1542 1541 1541 1541 1544 1549 1554
1764 1762 1762 1761 1761 1760 1760 1760 1760 1762 1765 1772 1780 1787 1794 1800 1808 1819 1832 1843 1861 1873 1886 1899 1909 1915 1919 1928 1937 1943 1949 1954 1957 1958 1961 1964 1967 1970 1975 1978 1981 1985 1988 1991 1994 1996 1996 1998 2002 2004 2006 2008 2013 2016 2020 2027 2035 2041 2046 2050 2055 2060 2064 2066 2067 2067 2069 2072 2074 2075 2075 2073 2072 2070 2068 2067 2067 2068 2069 2071 2073 2075 2076 2076 2076 2078 2080 2082 2084 2085 2086 2087 2087 2085 2081 2076 2072 2069 2067 2065 2059 2051 2040 2028 2018 2009 2001 1995 1991 1989 1988 1985 1983 1977 1972 1967 1960 1953 1947 1944 1943 1941 1938 1932 1925 1918 1912 1907 1905 1904 1901 1901 1902 1902 1902 1906 1911 1917 1920 1919 1918 1915 1908 1902 1902 1899 1879 1859 1852 1845 1841 1838 1837 1836 1833 1831 1830 1813 1793 1780 1771 1752 1730 1714 1702 1701 1708 1674 1614 1581 1574 1564 1555 1548 1546 1545 1545 1545 1543 1542 1542 1541 1542 1545 1548 1553
1764 1762 1761 1760 1760 1759 1759 1759 1761 1764 1768 1774 1781 1789 1796 1804 1813 1823 1836 1848 1862 1873 1884 1898 1908 1913 1918 1927 1933 1940 1947 1951 1953 1958 1963 1965 1968 1971 1974 1978 1982 1983 1986 1988 1990 1992 1993 1993 1994 1997 1999 2003 2007 2012 2017 2024 2032 2039 2043 2047 2052 2056 2059 2061 2061 2062 2064 2067 2068 2068 2068 2066 2062 2059 2058 2059 2060 2063 2066 2071 2074 2074 2074 2072 2072 2072 2072 2072 2071 2071 2072 2073 2072 2070 2066 2062 2058 2057 2055 2053 2048 2042 2034 2025 2016 2009 2000 1990 1986 1986 1987 1987 1986 1985 1979 1969 1962 1955 1948 1944 1940 1937 1932 1926 1920 1914 1909 1906 1905 1904 1906 1907 1908 1910 1913 1918 1926 1931 1935 1935 1934 1933 1927 1916 1909 1906 1898 1887 1880 1874 1871 1872 1868 1861 1856 1853 1846 1833 1834 1839 1818 1787 1786 1770 1756 1741 1707 1668 1609 1581 1574 1565 1557 1551 1547 1546 1545 1544 1543 1543 1543 1543 1544 1545 1548 1551
1770 1768 1765 1763 1761 1759 1758 1760 1764 1768 1773 1778 1784 1789 1799 1809 1816 1824 1837 1851 1862 1874 1886 1896 1905 1910 1916 1924 1930 1939 1947 1951 1954 1957 1960 1965 1967 1970 1973 1977 1979 1981 1983 1985 1987 1988 1987 1987 1988 1991 1995 1999 2006 2011 2017 2024 2030 2036 2040 2043 2048 2052 2055 2057 2058 2058 2058 2059 2059 2059 2059 2058 2056 2054 2053 2053 2055 2057 2062 2067 2068 2069 2068 2067 2065 2064 2063 2061 2061 2060 2061 2061 2061 2060 2055 2050 2048 2045 2043 2041 2037 2034 2028 2021 2014 2007 1998 1988 1982 1980 1981 1983 1984 1982 1975 1964 1956 1950 1943 1939 1935 1930 1925 1921 1917 1913 1910 1908 1908 1910 1913 1915 1918 1922 1927 1934 1939 1943 1944 1944 1943 1944 1944 1935 1923 1915 1916 1919 1910 1909 1910 1909 1908 1900 1889 1872 1865 1862 1858 1850 1841 1835 1828 1821 1817 1816 1782 1679 1593 1587 1579 1567 1558 1552 1548 1547 1546 1546 1545 1546 1547 1547 1546 1546 1548 1550
1775 1771 1767 1763 1760 1758 1759 1762 1768 1774 1778 1783 1787 1793 1801 1809 1816 1824 1834 1846 1858 1870 1883 1895 1903 1910 1917 1924 1933 1940 1948 1952 1954 1956 1960 1963 1965 1968 1971 1972 1975 1977 1979 1979 1981 1982 1982 1983 1985 1988 1990 1996 2002 2010 2016 2021 2027 2032 2037 2040 2044 2047 2050 2052 2054 2054 2054 2053 2052 2052 2052 2052 2052 2051 2051 2052 2054 2056 2058 2061 2062 2061 2060 2058 2055 2051 2049 2048 2050 2051 2051 2050 2049 2048 2045 2041 2038 2035 2032 2029 2027 2024 2020 2015 2009 2001 1992 1983 1978 1974 1975 1976 1975 1971 1963 1956 1950 1943 1937 1931 1926 1923 1920 1919 1919 1920 1920 1922 1925 1929 1932 1934 1937 1941 1944 1948 1952 1957 1959 1958 1958 1955 1954 1953 1950 1941 1934 1935 1934 1933 1935 1932 1922 1912 1905 1895 1884 1880 1880 1880 1874 1859 1848 1833 1825 1818 1813 1809 1732 1621 1571 1563 1557 1552 1548 1547 1547 1547 1548 1549 1550 1549 1547 1547 1547 1549
1775 1770 1765 1761 1758 1758 1761 1768 1776 1779 1780 1783 1789 1797 1804 1810 1817 1825 1833 1844 1858 1873 1886 1896 1903 1913 1922 1931 1937 1942 1948 1953 1956 1960 1962 1964 1967 1970 1972 1974 1976 1977 1977 1977 1977 1979 1979 1979 1981 1984 1987 1990 1999 2006 2012 2017 2024 2028 2032 2036 2040 2043 2045 2048 2050 2050 2050 2050 2049 2048 2048 2048 2047 2048 2050 2053 2056 2057 2059 2058 2057 2055 2051 2047 2044 2042 2039 2038 2038 2040 2041 2040 2039 2037 2035 2032 2029 2026 2024 2020 2017 2014 2011 2006 2002 1995 1988 1981 1974 1969 1969 1970 1968 1963 1959 1955 1950 1944 1936 1929 1924 1919 1918 1919 1922 1927 1930 1935 1942 1947 1950 1953 1955 1958 1963 1966 1969 1971 1974 1978 1977 1974 1971 1967 1962 1957 1956 1954 1950 1949 1948 1947 1947 1939 1926 1913 1907 1904 1902 1900 1887 1872 1857 1842 1828 1819 1814 1783 1668 1571 1568 1564 1557 1549 1546 1547 1547 1549 1550 1551 1551 1550 1549 1548 1547 1548
1775 1769 1763 1760 1758 1761 1768 1774 1778 1778 1777 1782 1791 1800 1809 1814 1820 1827 1836 1845 1856 1877 1893 1905 1918 1923 1929 1935 1941 1946 1951 1957 1962 1965 1969 1970 1974 1976 1978 1980 1981 1979 1977 1976 1976 1976 1976 1977 1979 1982 1985 1988 1991 1997 2004 2012 2020 2026 2028 2030 2034 2038 2041 2044 2046 2048 2048 2049 2049 2048 2046 2044 2045 2047 2050 2053 2056 2057 2056 2053 2050 2047 2042 2039 2038 2037 2036 2034 2033 2032 2033 2031 2029 2024 2021 2020 2017 2013 2009 2007 2005 2003 2000 1996 1992 1987 1981 1975 1969 1965 1963 1963 1963 1960 1958 1957 1957 1952 1944 1938 1930 1923 1921 1924 1928 1932 1939 1946 1952 1957 1963 1967 1971 1975 1979 1981 1985 1989 1994 1997 1997 1996 1990 1982 1976 1975 1975 1970 1966 1964 1962 1960 1958 1952 1944 1931 1921 1917 1914 1909 1903 1885 1865 1846 1828 1818 1768 1738 1666 1582 1576 1569 1558 1550 1549 1549 1550 1550 1551 1553 1553 1553 1553 1551 1549 1546
1775 1769 1764 1758 1759 1763 1770 1776 1776 1776 1777 1779 1790 1803 1810 1816 1822 1828 1839 1854 1868 1881 1899 1919 1929 1934 1938 1941 1945 1949 1955 1962 1967 1971 1973 1976 1979 1981 1982 1983 1983 1980 1977 1975 1975 1975 1976 1977 1979 1981 1983 1984 1986 1990 1996 2005 2013 2018 2021 2024 2027 2031 2035 2038 2041 2044 2045 2047 2046 2045 2044 2043 2043 2045 2049 2051 2051 2050 2046 2042 2038 2034 2033 2033 2035 2035 2034 2032 2030 2028 2026 2023 2018 2013 2009 2005 2003 2001 1998 1995 1993 1991 1989 1986 1983 1979 1973 1968 1966 1964 1962 1962 1964 1966 1966 1966 1969 1968 1961 1951 1940 1931 1926 1928 1931 1938 1945 1952 1959 1966 1973 1978 1984 1987 1993 1999 2004 2011 2015 2014 2012 2010 2011 2009 2005 2000 1996 1993 1987 1983 1983 1977 1969 1961 1953 1943 1933 1927 1923 1919 1914 1908 1894 1857 1816 1758 1712 1693 1663 1614 1584 1574 1565 1557 1552 1552 1550 1550 1551 1553 1555 1555 1554 1552 1549 1550
1776 1771 1764 1762 1765 1768 1772 1776 1778 1778 1779 1782 1791 1801 1810 1817 1824 1831 1845 1863 1877 1889 1904 1919 1930 1938 1941 1944 1948 1953 1959 1964 1968 1973 1977 1980 1983 1984 1984 1985 1982 1979 1977 1975 1975 1976 1978 1979 1981 1980 1979 1981 1982 1986 1993 1999 2002 2005 2008 2012 2016 2021 2026 2030 2033 2036 2039 2040 2041 2040 2040 2039 2039 2042 2045 2045 2045 2041 2038 2034 2030 2028 2026 2028 2031 2032 2031 2027 2025 2024 2022 2017 2011 2004 1999 1995 1993 1992 1989 1986 1984 1982 1980 1979 1978 1974 1969 1965 1965 1964 1964 1965 1968 1971 1974 1977 1977 1976 1971 1965 1955 1945 1942 1941 1943 1947 1956 1964 1969 1974 1983 1992 1997 2003 2010 2014 2019 2022 2024 2025 2023 2024 2023 2022 2021 2020 2019 2014 2008 2003 1997 1989 1981 1972 1968 1964 1949 1936 1931 1926 1920 1916 1918 1893 1804 1732 1706 1682 1645 1614 1593 1581 1570 1563 1557 1555 1553 1552 1553 1555 1556 1556 1556 1554 1557 1562
1772 1767 1763 1764 1766 1768 1770 1775 1781 1782 1784 1788 1792 1802 1812 1822 1830 1843 1857 1874 1891 1902 1912 1922 1931 1937 1943 1948 1952 1956 1961 1966 1970 1974 1978 1980 1982 1983 1983 1983 1982 1980 1977 1976 1977 1979 1981 1982 1981 1979 1978 1978 1980 1984 1990 1993 1994 1995 1998 2002 2007 2013 2018 2022 2025 2027 2029 2032 2034 2035 2035 2035 2036 2037 2038 2038 2036 2034 2031 2029 2026 2023 2022 2022 2024 2025 2023 2021 2019 2018 2017 2010 2001 1996 1991 1988 1985 1983 1980 1978 1975 1976 1977 1977 1976 1973 1969 1966 1964 1965 1967 1970 1973 1976 1979 1982 1985 1985 1983 1980 1976 1970 1966 1965 1962 1963 1969 1974 1977 1982 1992 2002 2010 2017 2022 2027 2029 2030 2033 2034 2035 2034 2035 2036 2034 2032 2032 2032 2027 2019 2010 2003 1997 1993 1987 1975 1962 1949 1938 1930 1923 1919 1912 1894 1796 1703 1687 1670 1641 1614 1598 1583 1574 1567 1563 1560 1558 1558 1558 1559 1559 1557 1556 1560 1564 1569
1766 1763 1761 1762 1764 1767 1769 1772 1777 1782 1787 1792 1800 1810 1822 1834 1844 1857 1873 1887 1899 1910 1919 1927 1932 1939 1945 1951 1955 1959 1964 1968 1971 1974 1976 1977 1978 1979 1980 1981 1981 1981 1981 1981 1982 1983 1983 1981 1979 1978 1978 1982 1986 1989 1990 1991 1991 1992 1994 1997 2002 2007 2013 2016 2018 2020 2022 2024 2027 2029 2030 2030 2029 2029 2029 2028 2027 2026 2025 2023 2020 2018 2017 2017 2017 2017 2016 2015 2014 2013 2008 2001 1993 1988 1987 1986 1983 1980 1977 1975 1976 1976 1975 1974 1972 1971 1969 1967 1966 1966 1968 1970 1972 1976 1979 1983 1986 1989 1991 1991 1990 1990 1990 1986 1982 1981 1981 1983 1987 1995 2003 2009 2015 2022 2029 2032 2037 2043 2045 2045 2045 2046 2044 2043 2042 2041 2040 2040 2038 2034 2026 2018 2009 1999 1987 1977 1965 1957 1949 1941 1933 1922 1884 1769 1693 1689 1675 1646 1626 1613 1597 1582 1574 1568 1565 1563 1562 1562 1563 1564 1562 1560 1561 1562 1567 1573
1763 1760 1759 1759 1764 1768 1771 1775 1780 1785 1794 1804 1815 1825 1836 1847 1857 1866 1882 1898 1908 1917 1924 1930 1936 1942 1948 1953 1957 1961 1964 1967 1969 1970 1971 1972 1973 1975 1977 1980 1984 1986 1987 1989 1990 1989 1987 1983 1979 1979 1981 1986 1992 1996 1998 1998 1999 1997 1998 1999 2001 2005 2008 2010 2012 2014 2015 2017 2020 2022 2023 2024 2023 2023 2021 2020 2020 2019 2017 2015 2013 2012 2012 2013 2013 2013 2011 2011 2009 2006 2001 1994 1990 1986 1986 1987 1984 1980 1977 1976 1976 1976 1974 1972 1971 1971 1971 1971 1969 1968 1968 1969 1971 1975 1978 1982 1986 1989 1992 1994 1996 1999 1999 1999 1998 1996 1995 1994 1996 2002 2008 2014 2021 2026 2032 2039 2045 2047 2049 2049 2050 2049 2047 2047 2047 2050 2051 2050 2046 2042 2033 2021 2006 1994 1985 1970 1951 1943 1943 1939 1932 1860 1734 1688 1687 1675 1661 1640 1620 1605 1590 1582 1575 1572 1570 1569 1568 1567 1566 1565 1564 1563 1564 1565 1571 1578
1760 1759 1758 1760 1763 1767 1774 1781 1786 1796 1806 1816 1827 1836 1846 1856 1866 1881 1894 1905 1916 1925 1932 1938 1944 1949 1954 1957 1960 1961 1963 1964 1966 1968 1969 1970 1971 1973 1978 1984 1989 1992 1993 1994 1994 1992 1989 1986 1983 1982 1984 1990 1997 2002 2004 2005 2005 2004 2004 2003 2001 2002 2003 2005 2006 2007 2008 2010 2013 2015 2016 2017 2017 2014 2011 2012 2013 2012 2010 2010 2010 2010 2010 2011 2012 2011 2009 2006 2004 2001 1997 1994 1992 1992 1992 1991 1989 1986 1984 1982 1980 1978 1975 1971 1969 1970 1972 1974 1972 1971 1971 1972 1973 1976 1978 1981 1985 1987 1989 1992 1995 1997 1997 1999 2002 2005 2005 2005 2005 2005 2011 2018 2024 2030 2035 2040 2044 2047 2050 2052 2054 2054 2053 2052 2053 2055 2056 2055 2050 2039 2028 2011 1994 1983 1989 1998 1971 1943 1903 1875 1835 1781 1680 1679 1670 1658 1644 1628 1612 1599 1590 1584 1581 1580 1581 1579 1576 1573 1569 1569 1569 1571 1573 1576 1581 1592
1756 1758 1761 1763 1768 1772 1779 1789 1799 1808 1817 1825 1834 1844 1855 1870 1886 1898 1908 1917 1927 1935 1943 1949 1954 1959 1964 1964 1963 1962 1962 1964 1967 1968 1969 1970 1972 1977 1982 1988 1992 1994 1994 1993 1992 1990 1989 1990 1990 1994 1997 2002 2008 2011 2012 2012 2011 2009 2007 2004 2001 1999 1999 1999 2000 2000 2001 2004 2007 2010 2011 2012 2011 2008 2005 2004 2005 2006 2007 2007 2008 2009 2009 2008 2008 2007 2005 2003 2001 2000 1999 2000 2002 2002 2000 2000 2000 1995 1991 1988 1984 1980 1977 1973 1971 1973 1975 1973 1971 1971 1973 1975 1977 1980 1981 1982 1983 1985 1987 1989 1992 1992 1993 1998 2003 2006 2011 2013 2013 2014 2017 2023 2030 2036 2039 2042 2047 2052 2056 2058 2059 2058 2058 2058 2057 2055 2051 2046 2038 2027 2009 1990 1968 1929 1923 1903 1882 1855 1824 1800 1747 1722 1669 1667 1659 1645 1632 1620 1609 1601 1594 1589 1588 1587 1586 1583 1580 1576 1574 1574 1576 1579 1583 1588 1595 1603
1757 1761 1764 1766 1772 1780 1789 1798 1807 1816 1825 1834 1843 1853 1868 1885 1897 1905 1913 1925 1937 1946 1953 1958 1960 1963 1965 1967 1967 1966 1965 1967 1970 1970 1971 1972 1975 1979 1984 1988 1991 1991 1990 1989 1989 1992 1995 2001 2005 2009 2015 2018 2020 2020 2019 2018 2016 2013 2009 2004 1998 1994 1992 1992 1992 1992 1995 1998 2002 2006 2007 2007 2007 2005 2004 2004 2005 2007 2009 2011 2012 2011 2010 2009 2007 2005 2004 2003 2004 2006 2007 2010 2013 2016 2016 2016 2015 2014 2006 1994 1987 1984 1981 1980 1979 1977 1974 1971 1969 1969 1972 1976 1979 1982 1985 1986 1986 1986 1987 1988 1988 1990 1992 1996 2000 2004 2007 2013 2020 2024 2030 2036 2040 2042 2043 2047 2051 2055 2059 2060 2062 2064 2064 2062 2056 2048 2042 2035 2020 2001 1979 1954 1929 1916 1893 1851 1816 1803 1788 1738 1723 1668 1657 1647 1637 1630 1623 1615 1607 1599 1593 1589 1587 1587 1585 1583 1581 1580 1580 1581 1584 1587 1592 1599 1604 1612
1759 1764 1767 1771 1778 1787 1797 1807 1815 1822 1831 1841 1852 1864 1880 1898 1911 1922 1931 1941 1949 1955 1960 1964 1966 1967 1968 1970 1971 1971 1974 1975 1977 1979 1979 1978 1980 1983 1986 1989 1990 1990 1991 1990 1995 2001 2009 2015 2018 2020 2022 2025 2028 2028 2026 2023 2019 2014 2008 2002 1996 1991 1989 1989 1990 1991 1992 1995 1998 2002 2005 2005 2004 2006 2009 2011 2014 2018 2021 2022 2021 2018 2015 2013 2013 2012 2008 2007 2008 2011 2015 2020 2024 2029 2031 2033 2035 2036 2031 2023 2011 2002 1995 1987 1983 1980 1977 1973 1971 1971 1973 1975 1980 1986 1990 1992 1991 1989 1988 1988 1989 1991 1993 1996 1998 2002 2007 2013 2022 2031 2038 2042 2043 2044 2045 2048 2051 2054 2057 2061 2065 2067 2067 2057 2044 2031 2018 2003 1987 1964 1954 1933 1909 1856 1823 1795 1772 1754 1730 1705 1680 1652 1641 1636 1633 1627 1621 1614 1607 1600 1591 1588 1588 1586 1585 1584 1584 1585 1585 1589 1592 1598 1603 1607 1615 1625
1761 1767 1772 1778 1787 1797 1806 1813 1820 1828 1836 1848 1862 1878 1894 1910 1927 1938 1946 1952 1957 1963 1968 1971 1971 1971 1974 1976 1977 1979 1982 1984 1987 1990 1988 1985 1987 1991 1994 1997 2000 2006 2010 2013 2017 2023 2028 2030 2030 2030 2031 2033 2033 2032 2029 2025 2020 2014 2007 2001 1997 1994 1993 1993 1993 1994 1996 1998 1999 2002 2004 2005 2006 2009 2012 2016 2020 2024 2026 2026 2025 2022 2018 2017 2016 2015 2012 2013 2014 2019 2024 2029 2034 2038 2040 2041 2043 2045 2044 2037 2028 2019 2010 2001 1995 1989 1985 1981 1978 1976 1977 1980 1985 1991 1995 1996 1994 1992 1990 1991 1993 1994 1995 1996 1999 2003 2010 2019 2026 2032 2037 2042 2043 2043 2044 2046 2050 2055 2057 2060 2063 2064 2059 2048 2030 2009 1991 1973 1956 1932 1902 1861 1802 1796 1785 1763 1756 1726 1702 1696 1677 1653 1641 1636 1633 1631 1627 1621 1614 1606 1595 1588 1589 1588 1588 1588 1588 1590 1591 1595 1600 1605 1610 1617 1625 1635
1763 1768 1777 1786 1797 1806 1809 1814 1821 1831 1844 1859 1879 1894 1908 1923 1935 1946 1955 1962 1969 1974 1978 1981 1982 1982 1982 1983 1985 1988 1990 1992 1996 1998 1997 1997 1996 2002 2009 2015 2022 2026 2032 2037 2040 2043 2045 2043 2042 2042 2042 2040 2037 2034 2029 2024 2020 2014 2006 2001 1998 1998 1998 1997 1996 1997 1998 2001 2003 2004 2005 2007 2010 2013 2017 2021 2024 2026 2027 2028 2028 2027 2025 2022 2018 2015 2014 2015 2019 2023 2027 2033 2040 2044 2046 2046 2046 2045 2042 2039 2035 2028 2020 2013 2007 2001 1995 1988 1983 1981 1981 1984 1989 1993 1995 1995 1994 1993 1993 1994 1995 1997 1998 1999 2002 2007 2013 2019 2026 2031 2037 2042 2044 2044 2044 2047 2049 2053 2055 2057 2057 2054 2041 2024 2003 1981 1959 1938 1913 1886 1851 1816 1763 1768 1746 1746 1722 1705 1694 1682 1666 1658 1650 1648 1646 1654 1651 1631 1622 1618 1607 1597 1592 1595 1597 1596 1595 1594 1596 1599 1606 1613 1619 1625 1633 1642
1770 1779 1787 1793 1800 1806 1810 1814 1824 1836 1852 1874 1894 1909 1922 1933 1945 1956 1963 1969 1975 1981 1986 1990 1992 1991 1990 1992 1996 1999 2002 2004 2008 2010 2012 2012 2015 2020 2025 2034 2040 2046 2053 2059 2061 2063 2064 2062 2059 2056 2054 2049 2041 2034 2028 2023 2019 2015 2008 2005 2005 2004 2002 1998 1997 1997 2000 2004 2005 2007 2008 2010 2014 2020 2023 2026 2028 2028 2028 2029 2031 2033 2031 2028 2024 2021 2019 2016 2020 2025 2029 2034 2038 2042 2046 2048 2046 2043 2041 2039 2035 2030 2025 2019 2014 2009 2003 1997 1991 1986 1985 1987 1990 1993 1995 1996 1995 1995 1997 1998 2000 2002 2004 2006 2009 2011 2015 2021 2027 2032 2037 2042 2047 2046 2042 2046 2051 2051 2051 2048 2046 2030 2010 1988 1971 1957 1938 1925 1902 1840 1789 1766 1750 1745 1742 1734 1723 1706 1693 1681 1673 1666 1662 1661 1667 1686 1721 1725 1685 1663 1653 1629 1616 1611 1610 1607 1604 1601 1602 1606 1612 1620 1626 1631 1641 1652
1776 1784 1791 1796 1798 1803 1811 1821 1830 1840 1853 1873 1896 1914 1927 1939 1951 1960 1967 1972 1979 1986 1992 1997 1999 2000 2000 2001 2004 2010 2015 2019 2022 2024 2026 2029 2033 2041 2048 2053 2059 2066 2073 2075 2077 2080 2079 2076 2073 2073 2071 2063 2052 2042 2032 2026 2022 2019 2017 2015 2014 2012 2009 2004 2002 2002 2002 2005 2009 2013 2014 2015 2018 2022 2026 2029 2030 2031 2031 2033 2038 2041 2042 2038 2031 2026 2022 2021 2023 2027 2030 2033 2037 2041 2045 2047 2046 2043 2042 2041 2036 2029 2023 2017 2012 2006 2002 2000 1995 1991 1991 1992 1995 1997 1999 1997 1997 2000 2002 2003 2004 2005 2008 2011 2013 2014 2019 2026 2032 2035 2040 2044 2043 2044 2041 2041 2043 2041 2036 2028 2017 1999 1970 1951 1944 1937 1928 1881 1814 1780 1761 1747 1738 1739 1746 1739 1716 1703 1704 1704 1679 1673 1667 1664 1715 1763 1752 1741 1727 1714 1702 1678 1651 1633 1627 1621 1616 1613 1614 1615 1620 1626 1633 1642 1655 1671
1772 1780 1789 1795 1802 1809 1817 1825 1835 1846 1862 1881 1903 1920 1932 1944 1954 1963 1971 1980 1988 1995 2000 2004 2007 2009 2009 2015 2020 2024 2028 2032 2035 2037 2038 2041 2048 2055 2062 2069 2076 2083 2089 2094 2096 2096 2096 2091 2087 2086 2084 2077 2066 2050 2040 2034 2030 2026 2024 2022 2020 2018 2015 2013 2011 2009 2009 2011 2013 2016 2017 2018 2020 2023 2027 2031 2034 2036 2038 2041 2043 2047 2048 2046 2042 2034 2026 2024 2026 2028 2030 2034 2039 2044 2048 2049 2048 2045 2043 2038 2033 2026 2019 2011 2005 2001 2000 2001 2000 2002 2004 2007 2012 2015 2015 2011 2005 2002 2005 2006 2007 2010 2012 2013 2016 2019 2024 2031 2037 2042 2044 2046 2038 2031 2025 2019 2021 2025 2017 2006 1980 1951 1937 1925 1917 1914 1861 1800 1789 1777 1764 1756 1769 1785 1772 1769 1768 1772 1814 1822 1781 1780 1784 1793 1816 1788 1767 1757 1746 1735 1719 1690 1666 1653 1640 1630 1626 1625 1622 1623 1626 1633 1645 1656 1668 1684
1778 1780 1785 1795 1805 1812 1819 1827 1840 1855 1871 1891 1908 1923 1935 1946 1957 1966 1977 1987 1995 2003 2009 2013 2016 2018 2021 2026 2032 2037 2040 2043 2046 2050 2053 2058 2064 2070 2076 2082 2089 2096 2100 2102 2105 2107 2106 2102 2098 2095 2092 2084 2072 2061 2051 2045 2041 2037 2034 2031 2028 2024 2022 2021 2019 2020 2019 2019 2019 2020 2022 2024 2026 2028 2030 2033 2037 2039 2041 2044 2047 2048 2048 2047 2044 2039 2033 2031 2034 2038 2040 2041 2046 2051 2054 2055 2054 2048 2041 2036 2030 2023 2015 2006 2001 2005 2013 2019 2023 2025 2026 2026 2026 2028 2029 2026 2021 2015 2012 2013 2014 2019 2021 2021 2022 2025 2031 2033 2035 2034 2037 2039 2043 2031 2018 2010 2005 1988 1983 1968 1939 1921 1906 1888 1866 1835 1811 1803 1795 1791 1792 1802 1812 1804 1818 1830 1832 1834 1832 1831 1828 1830 1832 1824 1818 1809 1790 1774 1761 1747 1727 1698 1673 1660 1648 1643 1639 1633 1628 1629 1635 1647 1659 1672 1683 1695
1790 1793 1796 1801 1810 1819 1829 1842 1856 1871 1886 1899 1911 1921 1932 1946 1960 1974 1985 1993 2000 2008 2015 2021 2027 2031 2036 2041 2047 2053 2054 2054 2057 2062 2067 2071 2078 2083 2088 2095 2100 2103 2107 2111 2116 2118 2116 2112 2106 2103 2097 2091 2081 2072 2065 2058 2054 2049 2045 2042 2037 2033 2030 2028 2026 2026 2026 2026 2026 2027 2028 2030 2031 2031 2032 2034 2036 2039 2044 2047 2048 2049 2048 2048 2047 2043 2040 2039 2043 2047 2049 2050 2052 2055 2056 2056 2051 2044 2037 2030 2026 2025 2025 2022 2027 2036 2038 2041 2040 2038 2038 2037 2037 2036 2039 2040 2041 2039 2041 2052 2056 2052 2042 2035 2031 2031 2028 2028 2025 2022 2021 2029 2043 2032 2017 2008 2001 1982 1960 1939 1917 1897 1879 1855 1830 1820 1812 1810 1801 1793 1790 1795 1805 1825 1831 1839 1845 1846 1847 1848 1850 1857 1860 1852 1829 1810 1793 1777 1768 1756 1729 1705 1686 1670 1660 1651 1640 1634 1634 1638 1646 1657 1671 1683 1695 1710
1800 1806 1809 1816 1826 1836 1845 1855 1867 1879 1892 1904 1915 1927 1939 1951 1966 1979 1991 1999 2005 2011 2017 2023 2030 2039 2047 2055 2062 2067 2069 2071 2072 2075 2079 2084 2090 2095 2100 2104 2108 2111 2115 2120 2124 2125 2124 2121 2117 2110 2103 2096 2088 2078 2072 2068 2065 2062 2057 2051 2045 2043 2039 2035 2035 2036 2035 2034 2032 2031 2033 2034 2034 2033 2032 2032 2035 2041 2046 2049 2049 2047 2046 2045 2045 2046 2048 2050 2052 2055 2057 2057 2056 2055 2054 2052 2049 2043 2038 2037 2041 2060 2069 2071 2069 2063 2057 2048 2046 2047 2049 2051 2054 2057 2061 2062 2064 2063 2065 2069 2068 2063 2054 2044 2035 2027 2021 2014 2010 2005 2005 2013 2014 2014 1964 1944 1940 1940 1928 1926 1912 1893 1864 1832 1819 1817 1830 1831 1825 1825 1832 1836 1845 1857 1864 1858 1857 1867 1878 1878 1878 1879 1878 1860 1839 1819 1801 1783 1765 1748 1729 1710 1695 1680 1669 1658 1647 1640 1645 1652 1660 1668 1679 1693 1710 1723
1810 1814 1822 1831 1838 1847 1857 1865 1875 1886 1896 1908 1923 1936 1946 1956 1965 1976 1989 1999 2006 2013 2019 2027 2035 2044 2052 2060 2066 2072 2075 2078 2080 2084 2089 2096 2101 2104 2107 2113 2118 2123 2127 2130 2132 2133 2134 2131 2124 2117 2109 2101 2091 2086 2080 2076 2074 2072 2069 2062 2055 2051 2049 2047 2047 2047 2046 2043 2040 2038 2039 2040 2039 2037 2035 2035 2037 2040 2045 2048 2048 2046 2044 2043 2045 2050 2056 2059 2061 2061 2062 2061 2058 2056 2052 2049 2047 2047 2048 2058 2074 2082 2085 2086 2085 2078 2066 2058 2056 2058 2061 2062 2065 2072 2078 2082 2081 2080 2079 2080 2080 2074 2061 2047 2033 2022 2014 2006 1999 1994 1972 1975 1972 1962 1939 1925 1915 1905 1899 1895 1906 1880 1856 1847 1845 1850 1856 1860 1865 1868 1871 1874 1886 1899 1909 1921 1932 1942 1948 1947 1931 1914 1899 1869 1835 1814 1797 1780 1764 1747 1729 1713 1698 1686 1674 1665 1656 1652 1651 1658 1667 1677 1689 1703 1716 1731
1821 1828 1836 1843 1851 1860 1870 1878 1885 1893 1902 1914 1927 1940 1955 1965 1975 1988 1997 2003 2009 2016 2026 2035 2044 2053 2059 2064 2070 2075 2078 2082 2086 2090 2098 2103 2106 2110 2114 2120 2128 2134 2136 2137 2139 2141 2140 2137 2133 2129 2119 2108 2103 2098 2093 2087 2083 2079 2075 2073 2070 2068 2064 2065 2065 2066 2065 2060 2054 2050 2049 2047 2044 2043 2044 2044 2044 2045 2047 2048 2048 2045 2045 2047 2052 2057 2062 2064 2063 2063 2061 2060 2057 2054 2053 2053 2056 2061 2067 2074 2080 2088 2093 2094 2093 2090 2086 2080 2075 2075 2075 2074 2076 2083 2092 2096 2099 2099 2099 2097 2091 2083 2068 2050 2038 2025 2010 2001 1990 1980 1962 1956 1955 1934 1924 1919 1906 1906 1888 1885 1884 1867 1866 1870 1874 1876 1880 1882 1884 1894 1911 1923 1931 1936 1939 1946 1956 1963 1959 1950 1935 1918 1901 1882 1846 1808 1789 1775 1754 1736 1724 1712 1703 1696 1689 1681 1676 1667 1663 1665 1672 1681 1694 1712 1724 1746
1842 1846 1849 1852 1858 1866 1874 1882 1890 1900 1909 1918 1929 1949 1966 1979 1991 1998 2005 2010 2016 2026 2035 2043 2051 2058 2064 2070 2075 2078 2081 2084 2089 2096 2102 2108 2112 2116 2125 2133 2139 2143 2143 2144 2145 2145 2145 2143 2141 2136 2126 2119 2115 2112 2108 2102 2098 2095 2091 2088 2085 2081 2078 2078 2080 2081 2080 2078 2073 2067 2062 2058 2057 2055 2053 2053 2052 2051 2051 2051 2050 2050 2050 2053 2059 2065 2067 2066 2066 2063 2061 2059 2058 2060 2062 2066 2069 2074 2080 2084 2090 2095 2098 2100 2099 2097 2094 2090 2087 2085 2084 2085 2089 2096 2103 2108 2109 2109 2107 2102 2098 2089 2080 2069 2055 2042 2024 2001 1994 1980 1972 1962 1943 1936 1920 1919 1916 1912 1878 1877 1879 1885 1888 1890 1890 1891 1892 1895 1899 1909 1922 1935 1947 1955 1961 1968 1975 1972 1968 1956 1941 1920 1900 1876 1850 1820 1791 1769 1750 1732 1723 1716 1708 1701 1697 1692 1683 1674 1677 1679 1682 1698 1712 1708 1723 1745
1849 1854 1855 1857 1862 1867 1876 1885 1895 1905 1915 1927 1945 1962 1975 1987 1996 2003 2009 2014 2020 2027 2037 2045 2052 2058 2065 2073 2077 2078 2081 2089 2095 2101 2107 2113 2121 2129 2136 2142 2147 2151 2154 2154 2153 2152 2150 2149 2146 2142 2136 2129 2125 2122 2119 2117 2114 2112 2108 2102 2097 2095 2092 2092 2093 2094 2093 2089 2084 2078 2073 2070 2067 2063 2060 2057 2056 2056 2057 2058 2057 2056 2057 2060 2065 2069 2071 2072 2071 2069 2066 2065 2068 2072 2075 2076 2078 2083 2089 2094 2097 2097 2100 2104 2104 2103 2100 2098 2094 2089 2090 2094 2099 2105 2111 2115 2116 2116 2112 2108 2104 2099 2096 2089 2075 2063 2043 2027 2012 1997 1984 1986 1976 1960 1942 1925 1910 1897 1896 1905 1904 1902 1903 1905 1907 1908 1913 1917 1925 1935 1947 1959 1967 1973 1979 1982 1981 1977 1968 1952 1929 1907 1886 1865 1844 1824 1803 1779 1754 1743 1732 1716 1708 1701 1696 1694 1693 1696 1693 1693 1700 1710 1713 1721 1726 1731
1855 1857 1858 1859 1863 1869 1878 1887 1900 1913 1926 1939 1955 1971 1983 1993 2000 2007 2012 2017 2024 2032 2039 2047 2053 2059 2066 2072 2076 2082 2093 2104 2108 2114 2119 2125 2133 2138 2144 2148 2153 2158 2162 2166 2166 2161 2158 2155 2151 2146 2141 2138 2134 2130 2127 2124 2123 2120 2115 2111 2106 2104 2102 2100 2099 2098 2098 2096 2092 2088 2084 2078 2073 2068 2064 2062 2060 2060 2060 2061 2062 2063 2067 2069 2070 2073 2076 2075 2073 2071 2072 2075 2079 2081 2081 2082 2085 2089 2096 2100 2100 2101 2103 2105 2107 2108 2107 2105 2103 2102 2103 2105 2109 2113 2117 2120 2122 2124 2123 2119 2111 2106 2102 2098 2088 2072 2056 2046 2028 2015 2013 2006 1992 1976 1972 1958 1938 1928 1926 1929 1932 1928 1922 1916 1916 1921 1929 1939 1947 1955 1965 1975 1984 1992 1996 1997 1990 1978 1964 1947 1923 1897 1878 1864 1845 1829 1817 1796 1776 1757 1728 1713 1708 1703 1697 1696 1699 1702 1701 1701 1708 1713 1719 1725 1727 1734
1859 1859 1859 1862 1865 1873 1883 1897 1911 1924 1936 1950 1963 1977 1990 1997 2004 2010 2018 2025 2031 2039 2046 2050 2057 2064 2072 2080 2086 2094 2106 2117 2125 2130 2136 2142 2145 2149 2152 2156 2160 2164 2169 2173 2174 2172 2168 2163 2158 2152 2148 2146 2143 2139 2135 2132 2128 2125 2121 2116 2113 2111 2109 2105 2103 2101 2100 2098 2095 2091 2086 2081 2078 2074 2071 2067 2064 2063 2063 2065 2067 2073 2079 2079 2078 2078 2076 2074 2073 2075 2079 2083 2083 2082 2084 2086 2090 2094 2098 2101 2103 2104 2106 2108 2110 2111 2113 2112 2108 2108 2110 2112 2113 2116 2119 2121 2124 2127 2129 2127 2119 2109 2104 2099 2096 2090 2085 2086 2089 2093 2074 2070 2082 2032 1972 1952 1947 1937 1939 1948 1951 1947 1939 1934 1935 1940 1948 1956 1964 1975 1985 1995 2006 2014 2019 2015 2003 1984 1967 1941 1918 1895 1878 1867 1851 1830 1822 1821 1802 1768 1736 1715 1711 1708 1705 1702 1703 1707 1707 1710 1712 1717 1721 1725 1732 1746
1861 1863 1864 1867 1874 1882 1891 1904 1917 1930 1943 1956 1970 1982 1993 2001 2008 2017 2025 2032 2038 2044 2048 2056 2064 2074 2084 2092 2101 2112 2123 2130 2137 2142 2145 2147 2150 2155 2161 2164 2166 2169 2172 2176 2178 2177 2173 2170 2172 2170 2162 2157 2152 2148 2145 2141 2135 2131 2128 2124 2122 2119 2114 2111 2108 2105 2101 2097 2094 2090 2088 2085 2080 2077 2074 2072 2071 2070 2071 2073 2078 2081 2081 2081 2079 2077 2075 2075 2077 2081 2083 2083 2082 2081 2084 2090 2094 2097 2100 2102 2104 2108 2110 2112 2114 2116 2117 2117 2115 2113 2113 2114 2115 2116 2118 2121 2124 2126 2129 2127 2119 2110 2105 2106 2112 2119 2118 2112 2110 2114 2114 2110 2093 2036 1977 1974 1970 1963 1960 1960 1959 1957 1953 1948 1952 1962 1972 1980 1988 1998 2007 2018 2029 2036 2037 2031 2014 1991 1964 1940 1921 1907 1893 1874 1856 1838 1828 1823 1806 1763 1729 1720 1718 1717 1714 1712 1710 1710 1710 1712 1715 1720 1723 1729 1737 1750
1861 1865 1868 1874 1881 1887 1899 1912 1926 1939 1952 1964 1976 1988 1999 2009 2017 2025 2032 2038 2043 2050 2058 2067 2078 2088 2097 2106 2116 2125 2134 2139 2143 2147 2151 2157 2161 2165 2170 2174 2175 2174 2175 2178 2182 2185 2184 2182 2181 2179 2174 2169 2164 2159 2154 2148 2143 2139 2141 2140 2136 2131 2127 2123 2120 2115 2112 2111 2110 2108 2105 2097 2091 2084 2080 2079 2078 2078 2078 2079 2079 2080 2080 2079 2078 2076 2075 2076 2080 2082 2082 2082 2081 2082 2085 2089 2094 2098 2100 2103 2106 2110 2113 2115 2116 2116 2117 2117 2115 2114 2114 2114 2114 2114 2116 2118 2121 2124 2128 2127 2121 2112 2115 2132 2144 2147 2147 2146 2143 2140 2133 2123 2115 2092 2027 1990 1984 1978 1978 1974 1972 1971 1968 1971 1976 1985 1993 1999 2009 2023 2035 2047 2052 2051 2048 2039 2020 1994 1975 1952 1939 1929 1913 1892 1864 1842 1829 1810 1785 1761 1742 1731 1729 1728 1724 1720 1718 1715 1712 1712 1717 1721 1725 1732 1740 1755
1863 1868 1874 1882 1890 1900 1910 1923 1937 1950 1962 1974 1985 1997 2009 2019 2028 2037 2044 2050 2055 2061 2070 2079 2090 2100 2108 2118 2126 2135 2142 2149 2153 2157 2163 2168 2169 2171 2175 2179 2176 2175 2175 2180 2186 2188 2190 2191 2191 2190 2185 2179 2173 2169 2165 2162 2162 2162 2158 2151 2145 2140 2138 2141 2148 2154 2147 2139 2136 2130 2124 2117 2107 2103 2100 2093 2087 2084 2081 2080 2079 2078 2078 2078 2077 2076 2075 2077 2079 2080 2080 2079 2080 2082 2086 2091 2093 2096 2100 2104 2108 2112 2113 2114 2117 2118 2117 2117 2116 2116 2116 2114 2113 2113 2116 2118 2120 2124 2129 2131 2132 2134 2140 2150 2155 2157 2160 2160 2161 2157 2148 2136 2118 2095 2049 2014 2013 2010 2009 2006 1998 1990 1991 1993 1996 2001 2009 2020 2032 2045 2058 2057 2057 2053 2048 2041 2028 2011 1992 1971 1955 1942 1924 1900 1883 1861 1832 1818 1791 1761 1753 1748 1741 1738 1735 1730 1725 1721 1718 1718 1720 1725 1731 1737 1747 1763
1868 1875 1883 1894 1907 1916 1925 1935 1946 1958 1970 1982 1995 2009 2023 2030 2037 2044 2052 2058 2064 2075 2085 2095 2104 2111 2118 2127 2135 2141 2149 2156 2163 2169 2172 2173 2172 2172 2176 2180 2181 2181 2186 2190 2192 2192 2193 2194 2197 2198 2196 2194 2192 2190 2188 2186 2185 2187 2185 2183 2181 2168 2157 2164 2170 2171 2168 2159 2151 2144 2139 2133 2126 2121 2115 2108 2101 2094 2090 2086 2083 2081 2079 2078 2077 2077 2077 2077 2079 2078 2078 2079 2081 2085 2089 2090 2092 2094 2098 2105 2112 2115 2118 2120 2124 2125 2124 2123 2123 2123 2122 2119 2116 2115 2117 2124 2130 2132 2136 2141 2146 2150 2155 2159 2162 2163 2162 2162 2164 2161 2153 2139 2120 2096 2072 2040 2031 2033 2036 2041 2042 2027 2008 2001 2005 2009 2022 2037 2063 2081 2074 2068 2065 2066 2064 2043 2021 2000 1977 1970 1968 1958 1939 1922 1907 1892 1868 1810 1769 1763 1759 1754 1751 1748 1743 1739 1734 1729 1727 1729 1731 1736 1751 1752 1765 1776
1877 1884 1896 1909 1921 1932 1940 1949 1961 1973 1985 1996 2010 2024 2033 2039 2045 2053 2061 2069 2077 2086 2096 2105 2112 2120 2129 2136 2143 2150 2157 2163 2170 2176 2181 2180 2180 2185 2190 2191 2192 2194 2196 2199 2203 2205 2205 2207 2209 2210 2212 2214 2213 2211 2207 2205 2208 2204 2200 2196 2192 2190 2190 2185 2182 2179 2173 2165 2159 2153 2149 2145 2139 2132 2126 2120 2113 2106 2101 2098 2094 2092 2089 2086 2081 2075 2076 2077 2079 2081 2081 2084 2089 2092 2093 2091 2093 2097 2102 2109 2117 2121 2125 2129 2132 2135 2136 2134 2132 2130 2128 2128 2126 2123 2123 2131 2139 2142 2144 2149 2154 2160 2165 2169 2169 2167 2167 2168 2169 2166 2156 2140 2122 2098 2073 2064 2064 2060 2060 2075 2088 2092 2002 2003 2005 2010 2031 2070 2089 2087 2086 2087 2093 2102 2111 2100 2036 1986 1985 1983 1978 1970 1952 1932 1911 1895 1886 1870 1824 1786 1774 1764 1759 1757 1756 1752 1744 1740 1738 1738 1744 1759 1775 1776 1788 1788
1888 1899 1908 1919 1932 1943 1954 1966 1977 1989 2001 2013 2026 2039 2046 2052 2058 2064 2072 2081 2087 2094 2102 2110 2118 2127 2135 2143 2151 2158 2165 2171 2176 2180 2184 2187 2189 2193 2199 2203 2203 2203 2207 2211 2215 2216 2217 2220 2222 2228 2232 2235 2236 2235 2234 2232 2227 2222 2217 2214 2208 2206 2202 2197 2194 2190 2186 2180 2171 2164 2159 2154 2150 2145 2140 2133 2127 2118 2111 2109 2108 2110 2110 2102 2091 2086 2083 2084 2088 2091 2096 2102 2103 2103 2101 2098 2100 2103 2112 2123 2127 2130 2131 2135 2142 2146 2145 2141 2135 2130 2129 2128 2126 2129 2134 2142 2149 2157 2165 2173 2180 2187 2189 2183 2177 2174 2174 2174 2174 2169 2156 2142 2123 2102 2094 2092 2098 2110 2126 2135 2147 2173 2120 2114 2114 2114 2124 2127 2138 2156 2172 2171 2165 2144 2130 2130 2102 2033 1995 1992 1982 1965 1948 1928 1906 1890 1879 1866 1831 1795 1782 1771 1768 1765 1765 1762 1756 1752 1752 1755 1759 1770 1778 1783 1788 1792
1900 1911 1921 1930 1938 1951 1964 1976 1989 2002 2015 2029 2042 2049 2056 2061 2065 2073 2082 2090 2095 2100 2106 2113 2122 2133 2144 2155 2163 2171 2175 2179 2181 2182 2186 2190 2193 2196 2201 2206 2211 2216 2221 2225 2227 2228 2230 2235 2245 2251 2254 2260 2263 2261 2256 2248 2242 2239 2233 2226 2222 2217 2214 2212 2211 2209 2200 2191 2185 2179 2172 2167 2162 2158 2153 2148 2139 2131 2125 2125 2126 2125 2125 2118 2110 2105 2102 2102 2102 2106 2109 2111 2113 2112 2114 2113 2114 2119 2129 2140 2145 2145 2144 2147 2149 2150 2149 2147 2142 2137 2135 2135 2138 2143 2152 2163 2175 2185 2195 2205 2215 2217 2216 2205 2191 2187 2182 2180 2176 2170 2162 2148 2134 2123 2119 2120 2131 2147 2156 2163 2176 2188 2205 2217 2138 2146 2173 2191 2198 2182 2190 2183 2167 2165 2176 2181 2159 2068 1993 1986 1978 1960 1942 1924 1907 1890 1874 1856 1832 1806 1788 1781 1778 1776 1773 1767 1766 1763 1766 1768 1771 1777 1781 1785 1789 1795
1907 1918 1929 1938 1949 1962 1976 1990 2003 2016 2031 2044 2054 2061 2067 2072 2077 2087 2096 2104 2112 2115 2119 2127 2135 2144 2154 2163 2172 2176 2181 2182 2183 2187 2191 2198 2204 2209 2213 2218 2223 2228 2234 2238 2240 2241 2248 2255 2259 2264 2272 2278 2282 2280 2274 2266 2259 2255 2250 2241 2232 2232 2232 2228 2225 2219 2213 2209 2205 2201 2193 2186 2180 2177 2180 2182 2172 2162 2159 2153 2149 2148 2145 2139 2130 2123 2116 2114 2114 2116 2116 2119 2120 2121 2124 2127 2129 2135 2143 2149 2154 2154 2155 2156 2156 2156 2155 2152 2151 2150 2151 2155 2162 2172 2182 2193 2205 2218 2228 2236 2242 2248 2243 2230 2216 2206 2197 2188 2180 2178 2172 2165 2155 2144 2138 2141 2150 2166 2181 2189 2195 2202 2215 2227 2246 2219 2222 2220 2222 2228 2214 2201 2200 2200 2162 2143 2121 2024 1990 1981 1969 1955 1942 1926 1909 1895 1882 1866 1846 1820 1796 1792 1790 1782 1775 1772 1771 1773 1773 1778 1781 1784 1789 1792 1796 1799
1917 1928 1939 1949 1961 1973 1986 2000 2017 2035 2048 2060 2068 2075 2084 2094 2100 2106 2113 2120 2125 2129 2135 2142 2149 2156 2164 2170 2175 2179 2181 2186 2193 2198 2203 2210 2216 2222 2226 2231 2237 2244 2249 2251 2254 2261 2268 2272 2277 2283 2289 2293 2296 2294 2297 2300 2281 2269 2263 2257 2255 2253 2249 2243 2238 2229 2223 2221 2220 2216 2211 2207 2204 2198 2195 2194 2192 2188 2186 2184 2174 2165 2160 2154 2143 2131 2125 2123 2123 2122 2124 2128 2130 2132 2133 2134 2136 2140 2145 2149 2152 2155 2157 2158 2160 2161 2161 2162 2164 2167 2169 2176 2185 2197 2210 2223 2235 2247 2258 2261 2263 2264 2258 2249 2236 2223 2211 2199 2189 2185 2181 2174 2168 2162 2159 2160 2164 2176 2187 2196 2206 2217 2230 2248 2263 2275 2281 2279 2273 2265 2249 2219 2204 2206 2163 2128 2083 2046 2030 1962 1954 1946 1932 1917 1904 1890 1879 1867 1846 1825 1814 1805 1795 1787 1780 1776 1775 1775 1776 1783 1787 1792 1796 1800 1803 1803
1926 1939 1951 1960 1969 1979 1994 2013 2031 2050 2064 2076 2083 2089 2099 2109 2115 2120 2125 2130 2138 2148 2155 2161 2167 2174 2178 2181 2185 2189 2196 2203 2208 2213 2218 2224 2229 2233 2237 2241 2249 2256 2259 2263 2269 2277 2286 2293 2298 2300 2305 2316 2326 2332 2335 2329 2306 2282 2276 2275 2274 2267 2261 2255 2250 2246 2242 2239 2232 2229 2230 2226 2225 2217 2207 2204 2204 2202 2200 2195 2187 2178 2171 2160 2144 2137 2134 2132 2131 2131 2132 2133 2135 2137 2138 2140 2141 2143 2145 2148 2150 2153 2156 2160 2163 2165 2167 2168 2177 2185 2197 2207 2217 2226 2236 2246 2258 2268 2275 2280 2280 2277 2271 2261 2246 2231 2213 2202 2195 2189 2184 2179 2176 2175 2175 2177 2181 2187 2195 2207 2220 2233 2246 2262 2278 2278 2278 2280 2279 2265 2250 2232 2214 2198 2146 2100 2075 2057 2028 2015 2001 1940 1934 1916 1899 1889 1880 1875 1865 1859 1840 1817 1807 1795 1788 1783 1781 1778 1780 1787 1792 1795 1801 1807 1810 1809
1934 1945 1956 1967 1978 1995 2014 2030 2045 2060 2076 2085 2093 2101 2109 2119 2127 2133 2138 2149 2161 2171 2181 2188 2193 2195 2194 2195 2201 2208 2214 2217 2221 2224 2229 2234 2240 2245 2249 2254 2260 2266 2272 2278 2285 2292 2301 2309 2314 2319 2328 2339 2352 2357 2353 2345 2332 2316 2306 2299 2291 2284 2278 2274 2269 2265 2261 2254 2249 2246 2242 2241 2240 2238 2230 2221 2217 2215 2209 2204 2196 2189 2181 2169 2151 2143 2141 2139 2137 2138 2138 2139 2140 2142 2145 2145 2145 2146 2148 2149 2151 2154 2158 2161 2167 2172 2177 2184 2193 2203 2213 2223 2235 2245 2256 2266 2275 2283 2289 2292 2290 2286 2283 2271 2256 2239 2221 2206 2197 2192 2187 2183 2178 2176 2179 2184 2191 2200 2207 2218 2240 2259 2269 2278 2283 2288 2289 2287 2284 2276 2254 2231 2218 2206 2153 2098 2090 2068 2048 2035 2013 1935 1928 1914 1900 1896 1896 1885 1871 1862 1855 1843 1825 1810 1798 1792 1788 1787 1787 1792 1795 1799 1804 1812 1814 1812
1935 1944 1957 1973 1996 2017 2031 2045 2059 2071 2079 2090 2102 2111 2120 2131 2142 2150 2159 2170 2179 2191 2203 2211 2217 2216 2213 2214 2216 2224 2233 2234 2235 2238 2242 2248 2255 2259 2263 2269 2275 2284 2292 2297 2300 2306 2314 2322 2332 2343 2353 2364 2371 2374 2374 2370 2370 2355 2337 2325 2312 2300 2295 2293 2290 2285 2276 2268 2260 2259 2258 2255 2252 2247 2246 2242 2237 2230 2223 2217 2207 2195 2184 2174 2166 2161 2157 2153 2147 2146 2146 2148 2147 2149 2150 2151 2152 2152 2151 2153 2156 2158 2160 2165 2172 2179 2185 2195 2205 2213 2219 2232 2244 2260 2275 2283 2290 2295 2300 2302 2300 2296 2290 2276 2266 2248 2229 2216 2206 2197 2190 2185 2179 2175 2177 2184 2192 2201 2211 2229 2248 2261 2271 2280 2285 2290 2293 2294 2286 2276 2254 2232 2221 2180 2154 2121 2091 2081 2067 2059 2036 2012 1913 1900 1902 1903 1900 1898 1893 1881 1870 1860 1844 1831 1815 1806 1798 1796 1795 1797 1800 1803 1807 1811 1812 1811
1945 1956 1973 1993 2013 2028 2043 2059 2071 2081 2090 2101 2110 2120 2131 2143 2155 2166 2175 2181 2199 2216 2230 2241 2240 2238 2249 2259 2259 2258 2255 2252 2251 2252 2255 2263 2268 2271 2272 2278 2288 2298 2308 2316 2325 2331 2336 2351 2368 2374 2378 2382 2387 2390 2392 2390 2383 2374 2363 2342 2325 2318 2308 2303 2300 2297 2290 2281 2275 2273 2275 2267 2269 2279 2279 2275 2263 2253 2241 2228 2218 2208 2197 2187 2179 2176 2172 2164 2159 2156 2154 2154 2152 2150 2151 2154 2154 2153 2154 2156 2157 2158 2164 2171 2179 2187 2195 2205 2217 2228 2241 2252 2266 2279 2290 2299 2305 2311 2317 2322 2321 2311 2290 2286 2274 2263 2245 2229 2217 2206 2196 2187 2182 2178 2178 2184 2190 2198 2209 2226 2240 2255 2263 2272 2281 2286 2290 2294 2293 2270 2245 2222 2201 2188 2169 2137 2120 2098 2095 2078 2056 2013 1980 1907 1907 1907 1907 1906 1901 1890 1876 1865 1851 1836 1827 1818 1815 1809 1805 1802 1803 1805 1807 1808 1808 1808
1960 1978 1995 2010 2024 2037 2051 2065 2078 2088 2098 2107 2117 2129 2141 2155 2170 2183 2198 2214 2230 2243 2254 2259 2261 2269 2276 2278 2280 2280 2279 2277 2276 2276 2280 2285 2287 2287 2295 2306 2313 2319 2329 2340 2347 2355 2367 2379 2385 2391 2395 2400 2405 2409 2409 2405 2396 2386 2377 2368 2352 2338 2328 2326 2321 2314 2308 2301 2294 2293 2299 2298 2306 2308 2303 2299 2284 2270 2258 2243 2227 2214 2204 2194 2188 2184 2178 2172 2167 2164 2163 2159 2154 2151 2151 2152 2153 2152 2154 2156 2158 2160 2165 2172 2183 2193 2203 2214 2230 2247 2261 2274 2283 2293 2302 2311 2322 2338 2347 2349 2339 2330 2331 2299 2289 2273 2263 2246 2230 2211 2199 2189 2183 2178 2179 2183 2189 2194 2205 2217 2233 2253 2260 2263 2267 2275 2283 2292 2296 2285 2272 2231 2207 2192 2178 2162 2140 2123 2106 2090 2073 2037 2013 1917 1910 1909 1910 1913 1906 1893 1881 1864 1848 1837 1830 1825 1821 1817 1810 1804 1803 1805 1806 1806 1807 1807
1976 1993 2009 2022 2035 2047 2060 2072 2083 2094 2105 2117 2128 2142 2157 2176 2196 2210 2221 2231 2241 2248 2253 2259 2265 2270 2276 2280 2284 2285 2284 2287 2289 2294 2299 2305 2312 2324 2332 2339 2342 2345 2350 2354 2363 2373 2385 2396 2403 2410 2414 2421 2425 2427 2426 2426 2417 2403 2392 2385 2375 2359 2350 2345 2338 2328 2321 2325 2335 2335 2335 2336 2338 2331 2324 2306 2289 2276 2263 2242 2226 2217 2207 2198 2194 2192 2188 2181 2174 2171 2169 2165 2159 2155 2152 2151 2151 2152 2153 2157 2160 2163 2168 2176 2185 2195 2206 2221 2234 2246 2259 2273 2290 2305 2313 2321 2333 2345 2359 2372 2379 2383 2331 2304 2290 2281 2269 2253 2235 2218 2203 2191 2183 2177 2178 2181 2186 2194 2199 2205 2229 2255 2263 2265 2264 2270 2279 2287 2289 2275 2260 2246 2229 2211 2195 2181 2161 2135 2126 2097 2086 2066 2047 1992 1941 1934 1928 1923 1913 1899 1880 1865 1853 1843 1835 1831 1826 1820 1813 1806 1806 1808 1809 1809 1809 1810
1991 2007 2020 2033 2045 2057 2070 2083 2092 2099 2109 2121 2137 2153 2178 2199 2212 2225 2230 2237 2242 2247 2252 2257 2262 2265 2272 2278 2280 2283 2289 2294 2300 2305 2311 2316 2322 2331 2341 2348 2352 2357 2361 2366 2373 2384 2395 2402 2409 2419 2429 2436 2442 2444 2442 2436 2427 2415 2406 2397 2384 2372 2361 2356 2351 2349 2350 2359 2363 2365 2373 2376 2367 2352 2335 2321 2302 2282 2266 2249 2233 2222 2212 2206 2201 2197 2193 2186 2180 2176 2174 2171 2168 2164 2161 2158 2156 2155 2157 2158 2161 2164 2171 2179 2190 2203 2218 2228 2236 2245 2256 2275 2295 2303 2313 2322 2331 2349 2368 2377 2384 2373 2343 2308 2298 2286 2275 2261 2247 2225 2204 2193 2184 2178 2177 2179 2184 2190 2196 2201 2219 2266 2271 2274 2276 2280 2283 2285 2286 2287 2268 2259 2251 2235 2208 2191 2179 2154 2131 2109 2100 2071 2086 2030 1980 1955 1936 1931 1920 1900 1885 1871 1857 1847 1840 1834 1829 1823 1816 1810 1810 1812 1814 1814 1813 1813
2007 2016 2027 2036 2048 2064 2077 2087 2097 2104 2113 2125 2142 2168 2188 2202 2212 2220 2228 2234 2239 2243 2248 2253 2256 2260 2265 2269 2273 2277 2283 2293 2299 2305 2311 2316 2323 2330 2337 2344 2352 2359 2366 2372 2378 2387 2395 2403 2410 2418 2426 2434 2440 2443 2445 2440 2434 2427 2414 2401 2390 2378 2367 2362 2364 2368 2378 2383 2388 2389 2390 2386 2370 2348 2335 2322 2305 2284 2267 2253 2238 2225 2216 2208 2202 2199 2195 2192 2187 2184 2181 2179 2178 2178 2176 2172 2168 2167 2168 2169 2169 2172 2176 2181 2196 2212 2221 2230 2234 2241 2258 2262 2286 2294 2304 2318 2340 2361 2381 2387 2386 2372 2357 2332 2315 2300 2283 2270 2258 2231 2209 2196 2186 2181 2177 2179 2183 2186 2187 2221 2264 2274 2279 2279 2278 2283 2288 2290 2292 2294 2297 2286 2272 2260 2233 2206 2185 2158 2140 2128 2111 2100 2099 2042 1980 1961 1945 1931 1917 1902 1887 1873 1860 1851 1843 1836 1830 1824 1818 1813 1812 1815 1818 1818 1817 1815
2014 2020 2027 2037 2049 2065 2078 2089 2097 2104 2113 2136 2157 2176 2193 2205 2213 2216 2222 2226 2230 2236 2243 2247 2249 2247 2251 2258 2263 2267 2274 2282 2288 2294 2301 2307 2314 2322 2328 2332 2339 2348 2357 2366 2373 2380 2386 2394 2401 2409 2417 2426 2433 2439 2445 2445 2442 2431 2418 2405 2394 2392 2391 2389 2387 2396 2403 2396 2390 2390 2389 2382 2372 2353 2338 2325 2310 2286 2264 2249 2236 2223 2213 2206 2202 2201 2202 2200 2197 2197 2199 2200 2201 2200 2197 2192 2187 2185 2185 2183 2182 2186 2189 2194 2198 2203 2212 2218 2224 2232 2245 2259 2277 2284 2305 2321 2348 2383 2390 2390 2385 2378 2366 2351 2318 2307 2291 2273 2261 2238 2214 2199 2190 2185 2184 2186 2189 2192 2197 2208 2241 2271 2279 2282 2283 2285 2289 2293 2295 2299 2305 2300 2292 2275 2255 2223 2189 2158 2146 2138 2128 2112 2062 2011 1983 1957 1942 1925 1909 1895 1886 1875 1862 1852 1844 1837 1831 1825 1819 1817 1816 1818 1820 1821 1819 1816
2014 2024 2031 2045 2058 2076 2083 2090 2103 2116 2136 2160 2171 2184 2193 2203 2211 2214 2216 2219 2226 2232 2234 2234 2230 2226 2231 2242 2250 2256 2265 2274 2279 2283 2290 2297 2302 2310 2317 2323 2329 2337 2346 2355 2364 2373 2378 2384 2391 2401 2410 2417 2424 2431 2439 2444 2444 2434 2425 2417 2410 2409 2409 2413 2411 2413 2409 2402 2394 2388 2383 2377 2366 2353 2338 2323 2309 2285 2261 2244 2229 2218 2212 2207 2207 2207 2208 2208 2210 2211 2214 2216 2217 2219 2218 2215 2212 2210 2206 2200 2200 2202 2205 2203 2204 2205 2210 2216 2223 2231 2238 2250 2270 2289 2311 2334 2360 2386 2394 2391 2388 2380 2368 2357 2326 2312 2292 2277 2259 2236 2216 2203 2198 2193 2192 2191 2195 2200 2207 2215 2238 2259 2272 2284 2289 2294 2299 2304 2311 2319 2319 2318 2304 2288 2273 2261 2195 2172 2160 2134 2114 2082 2033 1995 1968 1952 1937 1923 1908 1895 1885 1876 1865 1855 1846 1839 1832 1825 1821 1818 1817 1817 1819 1819 1820 1818
2014 2028 2036 2046 2057 2079 2099 2102 2120 2140 2151 2166 2180 2188 2193 2200 2207 2209 2208 2211 2217 2221 2220 2213 2208 2206 2214 2227 2240 2251 2256 2259 2265 2271 2278 2285 2292 2301 2309 2317 2322 2328 2335 2343 2352 2363 2370 2378 2382 2388 2399 2411 2414 2415 2424 2432 2434 2436 2434 2443 2439 2450 2440 2436 2430 2418 2409 2399 2390 2383 2376 2369 2358 2349 2333 2313 2293 2270 2251 2238 2226 2219 2216 2214 2216 2218 2219 2220 2223 2227 2229 2229 2231 2235 2238 2236 2233 2229 2227 2223 2225 2224 2217 2211 2208 2207 2210 2218 2220 2220 2230 2246 2269 2292 2309 2328 2355 2365 2388 2393 2388 2379 2366 2352 2328 2308 2288 2277 2264 2245 2226 2213 2205 2203 2202 2203 2205 2209 2214 2222 2233 2244 2258 2274 2287 2295 2302 2312 2325 2329 2327 2324 2303 2271 2250 2228 2202 2171 2146 2131 2115 2060 2000 1984 1972 1957 1940 1923 1908 1898 1886 1873 1864 1857 1849 1840 1833 1827 1822 1818 1817 1816 1816 1819 1819 1817
2014 2024 2032 2040 2050 2060 2097 2136 2150 2153 2157 2161 2172 2185 2191 2197 2201 2197 2196 2200 2205 2206 2201 2194 2191 2194 2207 2223 2236 2245 2248 2247 2252 2259 2266 2272 2280 2288 2296 2303 2311 2314 2318 2328 2337 2346 2355 2357 2363 2368 2381 2392 2397 2405 2409 2412 2418 2424 2434 2445 2449 2449 2447 2441 2431 2418 2404 2392 2382 2373 2366 2356 2345 2335 2325 2306 2285 2262 2241 2230 2222 2220 2221 2224 2228 2230 2232 2233 2238 2244 2249 2252 2254 2256 2261 2257 2252 2252 2252 2255 2258 2251 2236 2221 2212 2207 2209 2207 2212 2216 2230 2245 2266 2291 2312 2317 2330 2353 2368 2371 2366 2362 2353 2337 2330 2307 2286 2273 2261 2248 2236 2224 2217 2215 2215 2215 2215 2218 2221 2225 2231 2243 2259 2274 2286 2299 2316 2329 2345 2330 2303 2286 2271 2253 2235 2214 2190 2164 2136 2110 2070 2031 2007 1988 1974 1957 1937 1919 1904 1893 1881 1871 1862 1855 1849 1842 1834 1827 1823 1822 1822 1822 1821 1821 1820 1817
2013 2022 2027 2045 2048 2078 2129 2141 2146 2153 2157 2163 2170 2177 2187 2193 2189 2185 2186 2187 2191 2187 2181 2180 2181 2185 2207 2223 2234 2237 2238 2240 2243 2247 2255 2264 2271 2276 2284 2290 2289 2292 2302 2312 2319 2327 2329 2333 2339 2351 2363 2374 2384 2389 2392 2395 2396 2408 2424 2435 2437 2437 2436 2432 2426 2415 2404 2390 2380 2373 2362 2346 2333 2323 2304 2285 2264 2244 2230 2228 2226 2227 2231 2237 2242 2246 2250 2251 2252 2258 2268 2274 2278 2284 2288 2299 2299 2291 2282 2281 2275 2265 2247 2231 2220 2216 2215 2208 2210 2209 2235 2250 2261 2273 2297 2314 2327 2336 2354 2359 2361 2361 2354 2340 2334 2313 2292 2275 2263 2251 2245 2239 2234 2230 2228 2228 2227 2225 2226 2230 2241 2254 2264 2278 2305 2326 2335 2345 2349 2344 2299 2273 2267 2253 2231 2200 2172 2140 2099 2070 2050 2028 2007 1985 1969 1957 1937 1918 1904 1891 1880 1868 1857 1851 1845 1839 1835 1832 1831 1835 1838 1837 1836 1831 1825 1820
1989 2014 2046 2059 2076 2100 2111 2124 2134 2142 2147 2156 2165 2169 2176 2181 2176 2173 2175 2174 2166 2163 2165 2167 2170 2177 2192 2211 2213 2218 2225 2230 2235 2237 2242 2253 2259 2264 2271 2275 2274 2278 2288 2299 2305 2311 2314 2315 2323 2336 2344 2354 2363 2370 2378 2383 2388 2399 2413 2424 2424 2422 2420 2417 2412 2404 2394 2382 2369 2356 2345 2337 2322 2300 2274 2254 2241 2242 2235 2231 2233 2235 2241 2248 2255 2261 2265 2269 2273 2276 2284 2289 2300 2312 2325 2335 2323 2305 2295 2290 2283 2274 2258 2241 2233 2229 2221 2217 2215 2218 2239 2250 2263 2268 2280 2305 2321 2329 2351 2363 2369 2370 2365 2352 2352 2315 2291 2277 2268 2260 2251 2246 2243 2240 2238 2237 2237 2237 2239 2241 2248 2250 2264 2292 2313 2323 2330 2337 2343 2349 2304 2275 2257 2233 2209 2185 2160 2128 2090 2064 2048 2031 2006 1985 1971 1958 1939 1918 1903 1891 1879 1865 1856 1848 1844 1841 1841 1840 1843 1847 1848 1847 1846 1842 1837 1830
2010 2047 2055 2065 2084 2100 2108 2115 2122 2127 2133 2146 2150 2153 2157 2160 2163 2164 2161 2156 2148 2142 2144 2151 2158 2174 2189 2197 2199 2199 2208 2216 2222 2227 2231 2238 2244 2247 2254 2257 2263 2271 2282 2292 2295 2298 2301 2303 2308 2310 2320 2330 2346 2356 2363 2374 2380 2380 2395 2409 2405 2405 2403 2401 2398 2387 2373 2361 2349 2332 2318 2312 2305 2279 2251 2237 2226 2234 2226 2233 2238 2242 2249 2259 2269 2275 2281 2286 2289 2289 2305 2337 2353 2360 2359 2341 2329 2316 2306 2297 2288 2276 2265 2254 2244 2239 2232 2231 2234 2238 2241 2253 2263 2272 2280 2304 2318 2333 2357 2376 2381 2382 2379 2374 2355 2331 2304 2290 2279 2270 2261 2255 2252 2251 2249 2249 2250 2250 2249 2248 2250 2261 2277 2290 2307 2316 2322 2331 2340 2311 2266 2246 2233 2216 2201 2180 2146 2112 2085 2064 2053 2032 2004 1985 1972 1957 1940 1923 1907 1892 1879 1866 1856 1851 1849 1848 1849 1850 1851 1853 1853 1852 1850 1848 1845 1840
2052 2056 2058 2072 2087 2097 2102 2110 2114 2115 2119 2117 2125 2130 2134 2141 2145 2145 2140 2131 2126 2125 2129 2142 2150 2164 2180 2188 2189 2191 2196 2202 2209 2213 2217 2225 2231 2235 2239 2250 2257 2264 2274 2278 2280 2281 2286 2293 2296 2300 2304 2320 2337 2345 2349 2363 2372 2375 2379 2388 2390 2389 2387 2384 2376 2366 2355 2343 2326 2311 2302 2291 2274 2254 2233 2220 2216 2214 2212 2217 2231 2245 2255 2270 2282 2292 2299 2308 2316 2326 2342 2352 2361 2369 2358 2351 2352 2334 2323 2304 2295 2284 2274 2268 2263 2254 2241 2243 2246 2252 2255 2253 2266 2274 2300 2319 2336 2356 2384 2396 2396 2393 2384 2378 2352 2332 2318 2303 2293 2283 2277 2271 2268 2267 2267 2268 2268 2265 2263 2261 2261 2271 2281 2291 2300 2312 2324 2330 2324 2306 2278 2249 2228 2208 2187 2160 2126 2095 2077 2067 2047 2019 1999 1985 1970 1952 1937 1923 1910 1896 1882 1872 1865 1862 1861 1860 1858 1856 1855 1855 1856 1854 1851 1848 1846 1844
2035 2041 2051 2064 2073 2080 2087 2091 2096 2098 2097 2097 2102 2109 2112 2116 2115 2115 2110 2108 2109 2114 2126 2142 2151 2156 2166 2179 2184 2186 2188 2195 2194 2195 2196 2209 2220 2225 2231 2240 2250 2254 2256 2260 2262 2265 2273 2280 2289 2293 2297 2307 2321 2327 2338 2351 2366 2366 2368 2370 2370 2372 2370 2365 2356 2342 2324 2307 2296 2290 2283 2274 2256 2231 2212 2201 2217 2228 2245 2253 2257 2252 2274 2294 2305 2316 2324 2333 2341 2350 2359 2367 2372 2376 2374 2369 2363 2348 2327 2312 2301 2293 2285 2280 2276 2268 2258 2257 2262 2263 2260 2261 2275 2294 2320 2341 2362 2381 2394 2397 2401 2389 2381 2371 2351 2336 2322 2312 2302 2294 2289 2285 2282 2280 2281 2282 2280 2278 2277 2277 2276 2278 2289 2306 2319 2330 2336 2337 2318 2297 2275 2251 2225 2202 2181 2156 2122 2094 2076 2060 2042 2023 2002 1985 1971 1959 1943 1926 1915 1904 1892 1882 1878 1876 1873 1870 1866 1863 1860 1858 1855 1853 1850 1847 1845 1842
2016 2026 2035 2048 2059 2065 2068 2070 2070 2074 2073 2076 2084 2090 2094 2093 2086 2086 2084 2085 2097 2104 2134 2147 2147 2149 2163 2176 2182 2183 2188 2189 2189 2185 2189 2200 2210 2216 2221 2227 2234 2239 2244 2245 2247 2251 2257 2264 2273 2282 2287 2289 2299 2304 2318 2335 2343 2347 2348 2347 2344 2352 2351 2347 2338 2317 2296 2281 2272 2267 2259 2238 2219 2206 2208 2206 2210 2233 2254 2266 2273 2288 2298 2305 2314 2322 2343 2348 2356 2364 2371 2381 2392 2385 2386 2377 2373 2354 2337 2325 2316 2304 2294 2288 2284 2280 2275 2272 2270 2267 2263 2266 2277 2303 2356 2369 2381 2393 2408 2410 2404 2395 2396 2367 2356 2342 2329 2319 2312 2303 2296 2294 2291 2293 2297 2298 2296 2295 2294 2294 2292 2292 2300 2310 2323 2332 2335 2331 2316 2290 2264 2243 2225 2206 2183 2152 2124 2100 2073 2053 2038 2021 2003 1988 1976 1964 1951 1938 1923 1909 1902 1896 1891 1885 1880 1875 1872 1868 1865 1862 1858 1854 1851 1849 1846 1844
2002 2021 2028 2036 2045 2050 2051 2052 2052 2049 2048 2051 2059 2065 2066 2063 2059 2057 2058 2061 2069 2075 2110 2129 2136 2145 2158 2169 2174 2177 2181 2182 2177 2176 2176 2187 2195 2201 2203 2209 2214 2222 2227 2235 2235 2235 2241 2246 2257 2270 2273 2276 2282 2291 2300 2305 2315 2325 2326 2316 2311 2314 2314 2312 2303 2294 2281 2269 2255 2240 2224 2223 2184 2176 2184 2195 2205 2210 2244 2271 2282 2295 2305 2322 2334 2337 2348 2360 2370 2380 2389 2403 2414 2406 2400 2398 2386 2370 2352 2340 2332 2320 2311 2310 2307 2301 2295 2288 2286 2285 2287 2291 2305 2347 2379 2387 2397 2406 2414 2419 2409 2415 2400 2381 2368 2350 2340 2334 2326 2319 2313 2310 2308 2308 2309 2310 2312 2311 2311 2310 2308 2309 2312 2318 2324 2326 2324 2314 2299 2278 2258 2246 2235 2223 2200 2160 2120 2090 2070 2055 2041 2024 2008 1994 1980 1969 1959 1946 1931 1918 1909 1903 1899 1893 1886 1881 1877 1874 1871 1868 1863 1859 1856 1853 1850 1846
1993 2007 2014 2016 2026 2030 2032 2033 2033 2031 2028 2032 2036 2040 2037 2036 2036 2040 2045 2048 2055 2079 2103 2117 2130 2140 2151 2158 2163 2168 2173 2173 2164 2154 2153 2150 2167 2175 2178 2184 2189 2197 2206 2213 2222 2225 2228 2234 2243 2252 2255 2261 2270 2276 2282 2284 2288 2298 2303 2297 2290 2290 2288 2283 2278 2271 2256 2242 2222 2196 2194 2189 2184 2171 2171 2178 2198 2203 2218 2254 2272 2292 2314 2328 2333 2349 2353 2364 2383 2378 2382 2417 2421 2423 2419 2419 2409 2389 2372 2358 2347 2336 2329 2327 2329 2329 2320 2314 2314 2303 2305 2314 2324 2344 2371 2386 2400 2413 2425 2432 2433 2432 2425 2402 2389 2364 2354 2350 2344 2334 2329 2329 2328 2327 2325 2325 2325 2325 2324 2325 2327 2325 2325 2329 2329 2329 2326 2321 2316 2302 2276 2262 2254 2229 2201 2156 2110 2085 2068 2055 2041 2026 2010 1997 1984 1974 1963 1951 1938 1926 1917 1910 1904 1899 1893 1886 1881 1878 1876 1872 1868 1862 1859 1855 1851 1847
1979 1990 1993 1998 2006 2012 2014 2014 2012 2012 2012 2012 2008 2015 2012 2019 2025 2032 2047 2060 2077 2092 2105 2115 2127 2136 2144 2149 2154 2157 2156 2154 2139 2131 2125 2119 2122 2140 2157 2166 2173 2180 2186 2195 2208 2214 2219 2222 2230 2237 2240 2246 2253 2261 2269 2269 2270 2275 2271 2277 2277 2269 2261 2250 2239 2230 2218 2199 2182 2171 2176 2181 2144 2141 2144 2165 2187 2199 2220 2235 2260 2271 2307 2344 2349 2349 2359 2367 2380 2382 2391 2422 2441 2440 2446 2438 2425 2408 2390 2380 2364 2353 2342 2338 2341 2341 2341 2330 2332 2318 2327 2336 2346 2366 2391 2407 2413 2425 2447 2449 2447 2437 2430 2419 2395 2383 2371 2366 2360 2354 2350 2348 2349 2351 2351 2348 2346 2345 2345 2345 2346 2347 2347 2345 2340 2333 2328 2324 2313 2296 2284 2276 2255 2227 2184 2136 2102 2082 2072 2061 2048 2033 2017 2001 1989 1980 1970 1955 1943 1933 1923 1916 1910 1904 1898 1892 1887 1884 1881 1878 1872 1866 1861 1857 1853 1849
1964 1971 1979 1984 1990 1997 1999 1994 1988 1980 1979 1981 1983 1991 2001 2016 2030 2041 2057 2072 2090 2103 2109 2119 2126 2132 2137 2141 2141 2139 2136 2129 2126 2116 2098 2092 2096 2112 2144 2159 2162 2169 2177 2186 2196 2204 2205 2209 2220 2227 2230 2234 2239 2250 2260 2262 2256 2257 2252 2262 2253 2243 2232 2214 2197 2188 2176 2169 2166 2153 2146 2141 2129 2129 2145 2146 2171 2191 2214 2239 2239 2266 2293 2331 2338 2348 2363 2381 2380 2383 2401 2420 2449 2465 2458 2448 2437 2425 2414 2400 2383 2384 2368 2364 2358 2358 2372 2356 2335 2339 2343 2350 2368 2392 2413 2428 2433 2443 2455 2459 2458 2446 2431 2414 2401 2395 2389 2386 2377 2375 2374 2372 2368 2368 2369 2369 2368 2368 2367 2366 2366 2367 2367 2366 2358 2345 2338 2329 2318 2302 2285 2276 2248 2190 2160 2137 2104 2085 2075 2064 2050 2037 2023 2008 1994 1982 1974 1964 1952 1939 1928 1918 1911 1906 1902 1898 1893 1889 1886 1881 1875 1869 1865 1862 1858 1853
1951 1953 1959 1968 1974 1982 1980 1976 1966 1968 1971 1979 1987 2005 2023 2038 2053 2062 2074 2089 2103 2104 2108 2115 2121 2122 2124 2125 2123 2119 2118 2117 2106 2083 2071 2070 2075 2101 2132 2142 2146 2153 2167 2181 2186 2189 2194 2205 2212 2218 2218 2221 2224 2233 2243 2240 2241 2241 2237 2224 2220 2213 2195 2177 2163 2152 2151 2145 2142 2134 2122 2122 2123 2123 2128 2142 2165 2181 2200 2222 2226 2240 2274 2305 2321 2343 2359 2365 2368 2387 2407 2426 2447 2460 2457 2452 2447 2443 2438 2416 2403 2403 2405 2387 2383 2391 2400 2399 2409 2386 2373 2382 2394 2414 2429 2438 2445 2449 2456 2462 2468 2458 2442 2425 2413 2411 2405 2401 2395 2393 2391 2391 2388 2386 2383 2383 2385 2385 2386 2386 2385 2386 2387 2383 2370 2355 2344 2332 2317 2299 2280 2245 2206 2184 2163 2139 2114 2096 2080 2064 2047 2035 2025 2012 1998 1987 1978 1967 1954 1941 1932 1925 1919 1914 1908 1903 1898 1892 1887 1883 1877 1873 1869 1864 1860 1855
1933 1938 1941 1950 1948 1952 1953 1955 1965 1975 1989 2003 2015 2029 2048 2064 2071 2078 2089 2101 2107 2110 2110 2109 2109 2108 2108 2106 2103 2101 2099 2091 2063 2059 2056 2057 2061 2079 2106 2122 2124 2137 2159 2169 2174 2181 2190 2192 2200 2198 2199 2200 2206 2203 2209 2212 2220 2214 2203 2189 2179 2164 2151 2142 2135 2128 2124 2126 2124 2123 2124 2128 2123 2118 2126 2145 2162 2169 2202 2207 2206 2213 2250 2288 2296 2320 2329 2338 2341 2367 2399 2417 2435 2444 2455 2452 2454 2453 2443 2433 2435 2434 2429 2419 2401 2412 2416 2415 2415 2403 2404 2406 2418 2426 2437 2448 2454 2459 2465 2473 2479 2482 2470 2447 2435 2430 2426 2413 2410 2410 2407 2402 2396 2395 2396 2398 2402 2406 2406 2404 2407 2414 2409 2396 2374 2357 2344 2333 2319 2297 2258 2222 2203 2186 2165 2146 2128 2106 2086 2069 2052 2039 2026 2015 2004 1992 1980 1971 1962 1950 1940 1933 1927 1921 1915 1909 1903 1896 1891 1887 1885 1881 1875 1869 1864 1859
1924 1931 1931 1931 1938 1945 1953 1963 1977 1993 2008 2019 2035 2052 2065 2075 2083 2089 2097 2107 2112 2115 2108 2102 2096 2092 2092 2091 2087 2085 2081 2070 2064 2046 2036 2045 2058 2059 2094 2101 2120 2128 2144 2153 2159 2166 2164 2168 2167 2169 2169 2173 2166 2166 2178 2193 2190 2190 2180 2168 2156 2135 2129 2125 2121 2113 2125 2119 2117 2113 2118 2124 2120 2121 2129 2128 2144 2170 2176 2184 2183 2186 2236 2275 2281 2283 2295 2306 2318 2328 2359 2393 2415 2423 2438 2446 2450 2451 2449 2455 2462 2476 2462 2459 2435 2438 2442 2446 2434 2425 2427 2435 2441 2448 2456 2465 2475 2482 2501 2506 2512 2515 2496 2482 2462 2453 2448 2427 2416 2424 2422 2400 2398 2396 2398 2411 2426 2428 2425 2429 2433 2433 2429 2407 2385 2364 2343 2323 2307 2289 2260 2226 2205 2187 2167 2147 2128 2109 2095 2076 2059 2044 2032 2021 2008 1995 1983 1972 1961 1951 1942 1935 1932 1927 1923 1916 1910 1906 1901 1898 1892 1887 1881 1875 1871 1866
1923 1928 1934 1944 1956 1965 1974 1986 1999 2011 2021 2036 2051 2065 2078 2086 2094 2103 2112 2114 2112 2105 2098 2088 2080 2076 2077 2076 2073 2068 2055 2056 2037 2017 2025 2038 2040 2038 2063 2069 2096 2124 2133 2135 2140 2130 2136 2138 2140 2138 2143 2138 2136 2140 2138 2143 2148 2154 2159 2150 2143 2105 2105 2107 2099 2096 2099 2108 2097 2087 2094 2115 2118 2125 2116 2131 2135 2146 2154 2157 2161 2164 2201 2231 2254 2261 2264 2271 2300 2311 2330 2368 2397 2407 2417 2431 2439 2442 2449 2463 2472 2478 2480 2476 2457 2449 2455 2448 2436 2430 2436 2452 2458 2464 2475 2504 2531 2521 2536 2530 2526 2522 2518 2503 2489 2476 2474 2461 2457 2485 2505 2499 2481 2462 2448 2436 2443 2449 2454 2456 2457 2452 2437 2417 2386 2363 2336 2317 2302 2273 2238 2219 2203 2185 2167 2151 2134 2118 2101 2080 2062 2047 2035 2022 2007 1994 1984 1975 1963 1951 1944 1941 1940 1938 1933 1928 1925 1923 1918 1910 1902 1894 1887 1883 1878 1873
1932 1936 1949 1962 1971 1980 1988 1999 2012 2026 2039 2049 2061 2073 2083 2092 2100 2105 2109 2108 2102 2091 2080 2073 2066 2061 2056 2050 2045 2037 2026 2019 2005 2007 2016 2020 2019 2026 2038 2059 2076 2094 2110 2102 2111 2104 2112 2120 2121 2123 2121 2117 2115 2118 2093 2100 2102 2110 2107 2100 2092 2080 2073 2071 2068 2063 2052 2050 2073 2072 2080 2087 2097 2102 2111 2115 2120 2122 2140 2140 2142 2147 2144 2175 2214 2241 2239 2263 2288 2297 2322 2358 2383 2388 2396 2408 2421 2425 2441 2448 2460 2463 2472 2470 2451 2450 2445 2436 2439 2432 2442 2462 2471 2477 2487 2500 2539 2540 2539 2545 2542 2539 2532 2523 2502 2495 2493 2491 2489 2512 2518 2511 2500 2486 2477 2476 2480 2488 2486 2482 2477 2472 2445 2412 2388 2365 2349 2330 2299 2268 2237 2216 2203 2190 2177 2158 2136 2118 2098 2076 2057 2044 2034 2021 2007 1995 1988 1980 1970 1960 1952 1948 1949 1948 1944 1941 1938 1936 1929 1923 1914 1905 1898 1893 1887 1881
1941 1951 1962 1976 1986 1995 2005 2016 2030 2045 2055 2065 2073 2081 2088 2094 2097 2098 2096 2092 2085 2077 2068 2059 2050 2041 2031 2021 2012 2006 2001 1996 1996 1992 1987 1994 2011 2025 2039 2051 2066 2069 2067 2069 2066 2073 2090 2106 2111 2102 2098 2099 2089 2085 2083 2088 2083 2085 2081 2073 2064 2057 2043 2036 2046 2036 2038 2031 2022 2028 2033 2072 2079 2088 2089 2095 2092 2095 2107 2115 2115 2118 2115 2126 2169 2207 2235 2257 2269 2283 2304 2343 2362 2367 2371 2381 2391 2401 2413 2422 2432 2441 2448 2454 2449 2434 2426 2425 2427 2440 2449 2480 2484 2487 2493 2493 2524 2540 2548 2559 2559 2557 2548 2536 2524 2512 2511 2511 2523 2524 2525 2517 2507 2494 2484 2487 2492 2503 2505 2500 2490 2457 2430 2408 2385 2366 2349 2331 2306 2277 2246 2222 2210 2202 2185 2162 2137 2114 2094 2075 2057 2043 2032 2021 2009 1999 1994 1989 1984 1975 1968 1966 1967 1963 1958 1955 1951 1946 1939 1930 1922 1914 1906 1899 1893 1887
1952 1969 1983 2000 2011 2020 2029 2038 2048 2057 2065 2074 2083 2089 2091 2091 2088 2082 2079 2076 2070 2062 2048 2030 2020 2014 2007 1999 1991 1983 1980 1978 1976 1975 1969 1973 2000 2022 2029 2035 2039 2043 2044 2042 2039 2046 2064 2088 2073 2071 2062 2068 2068 2064 2063 2056 2057 2060 2059 2053 2043 2038 2029 2015 2011 2004 1993 1993 1995 2008 2017 2050 2061 2069 2070 2073 2071 2066 2075 2079 2085 2076 2085 2091 2122 2152 2182 2243 2244 2265 2283 2315 2335 2344 2348 2355 2362 2373 2382 2392 2409 2422 2428 2435 2407 2405 2413 2420 2415 2436 2458 2482 2482 2488 2496 2513 2518 2535 2545 2554 2561 2561 2551 2546 2538 2543 2533 2543 2541 2540 2536 2542 2527 2509 2511 2500 2499 2516 2524 2506 2469 2447 2433 2410 2384 2364 2346 2321 2296 2275 2244 2219 2208 2201 2185 2170 2147 2118 2098 2083 2069 2055 2044 2033 2025 2018 2014 2011 2005 1997 1991 1987 1981 1975 1967 1962 1957 1950 1943 1936 1928 1920 1911 1904 1897 1892
1978 1999 2014 2021 2025 2032 2040 2049 2060 2066 2072 2079 2085 2089 2090 2084 2077 2068 2060 2054 2050 2031 2011 2006 2002 1999 1996 1988 1978 1971 1963 1962 1959 1961 1962 1968 1986 1997 2002 2009 2012 2016 2021 2020 2020 2022 2035 2036 2034 2041 2033 2046 2042 2039 2027 2029 2034 2035 2041 2035 2019 2009 2006 1996 1976 1975 1970 1970 1977 1977 1985 2012 2034 2040 2046 2054 2051 2051 2050 2055 2055 2057 2061 2076 2087 2118 2131 2182 2195 2244 2244 2275 2305 2311 2325 2336 2330 2337 2353 2367 2378 2385 2374 2365 2358 2363 2369 2381 2403 2436 2450 2456 2464 2479 2486 2499 2515 2526 2536 2545 2551 2547 2542 2538 2537 2537 2540 2540 2543 2540 2541 2534 2534 2519 2494 2528 2513 2532 2511 2481 2463 2452 2431 2405 2380 2360 2338 2317 2296 2274 2251 2233 2220 2206 2195 2175 2150 2127 2107 2091 2078 2069 2061 2057 2052 2050 2043 2033 2024 2017 2012 2002 1994 1985 1976 1967 1960 1953 1945 1938 1932 1925 1918 1910 1904 1899
1986 2004 2029 2036 2038 2048 2054 2061 2064 2069 2077 2083 2085 2085 2079 2074 2064 2053 2044 2034 2019 2005 1992 1988 1986 1980 1973 1968 1964 1957 1949 1945 1941 1948 1957 1965 1968 1968 1968 1979 1986 1994 2000 2006 2006 2003 2005 1995 2001 2011 2010 2014 2012 2010 2009 2002 2002 2009 2003 1991 1981 1975 1973 1966 1955 1958 1957 1964 1973 1969 1978 1991 2000 2007 2014 2023 2029 2025 2037 2028 2030 2036 2049 2062 2078 2094 2118 2126 2100 2170 2175 2216 2274 2279 2295 2301 2294 2317 2333 2343 2333 2340 2343 2328 2320 2319 2330 2345 2371 2406 2411 2422 2417 2452 2457 2481 2496 2510 2525 2528 2529 2530 2528 2524 2523 2523 2529 2535 2536 2532 2533 2531 2535 2498 2482 2485 2487 2484 2486 2469 2452 2443 2424 2393 2368 2348 2328 2307 2291 2275 2255 2234 2221 2211 2190 2170 2150 2128 2114 2099 2086 2077 2073 2072 2072 2069 2065 2058 2046 2033 2024 2011 2001 1992 1983 1973 1963 1953 1947 1943 1937 1931 1925 1919 1913 1907
1981 1994 2009 2023 2039 2052 2065 2062 2058 2071 2080 2082 2081 2074 2065 2056 2046 2039 2030 2019 2002 1982 1975 1972 1966 1958 1952 1948 1947 1943 1937 1932 1930 1929 1936 1952 1950 1944 1942 1951 1961 1974 1983 1988 1983 1980 1976 1967 1976 1987 1983 1982 1987 1985 1977 1972 1977 1977 1972 1970 1945 1948 1943 1937 1932 1928 1927 1933 1937 1945 1960 1972 1985 1980 1982 1990 1986 1995 1999 2003 2011 2018 2027 2045 2052 2072 2083 2086 2082 2095 2121 2154 2260 2265 2260 2271 2267 2272 2277 2287 2304 2307 2304 2300 2299 2297 2301 2319 2334 2359 2379 2387 2387 2415 2440 2463 2470 2484 2499 2506 2505 2510 2509 2507 2507 2506 2510 2525 2525 2526 2522 2519 2518 2486 2481 2470 2475 2471 2464 2452 2440 2426 2409 2383 2359 2343 2324 2302 2283 2270 2253 2238 2224 2211 2195 2172 2149 2133 2122 2108 2097 2091 2088 2086 2082 2079 2076 2071 2056 2042 2028 2016 2006 1996 1987 1977 1966 1957 1951 1946 1942 1935 1928 1922 1916 1910
1974 1985 2004 2018 2034 2056 2077 2066 2062 2076 2083 2082 2075 2061 2048 2038 2030 2023 2018 2003 1985 1967 1955 1953 1950 1942 1934 1934 1936 1933 1925 1920 1925 1929 1919 1932 1926 1923 1922 1923 1931 1954 1963 1965 1960 1952 1953 1953 1959 1966 1968 1969 1960 1963 1949 1948 1944 1944 1947 1948 1930 1922 1918 1912 1911 1908 1900 1905 1911 1920 1935 1946 1962 1965 1960 1962 1966 1968 1979 1985 2001 2011 2013 2019 2038 2051 2060 2067 2079 2089 2094 2110 2191 2256 2241 2225 2234 2242 2247 2246 2267 2274 2277 2273 2269 2286 2289 2300 2320 2329 2352 2358 2363 2378 2415 2436 2446 2459 2473 2480 2484 2491 2492 2493 2486 2480 2485 2499 2508 2507 2502 2495 2498 2480 2473 2464 2460 2456 2446 2436 2426 2414 2390 2365 2348 2333 2313 2294 2278 2264 2249 2236 2225 2217 2205 2187 2162 2146 2134 2124 2114 2104 2098 2096 2092 2085 2079 2073 2062 2045 2029 2016 2005 1997 1989 1980 1970 1960 1954 1950 1945 1938 1930 1923 1917 1913
1960 1987 2007 2023 2037 2073 2091 2103 2099 2097 2083 2079 2076 2070 2058 2045 2034 2010 1991 1987 1967 1953 1946 1939 1936 1936 1935 1928 1923 1920 1920 1918 1916 1918 1902 1896 1900 1896 1900 1900 1903 1921 1931 1938 1933 1927 1930 1938 1941 1941 1940 1935 1928 1925 1923 1930 1933 1935 1912 1897 1902 1903 1900 1893 1886 1881 1879 1887 1899 1906 1913 1922 1939 1945 1950 1954 1960 1965 1980 1996 1999 2008 2009 2020 2032 2042 2047 2060 2078 2081 2087 2089 2090 2163 2200 2210 2250 2212 2221 2232 2244 2257 2255 2253 2257 2266 2279 2287 2294 2313 2333 2345 2347 2355 2379 2400 2425 2438 2452 2458 2470 2474 2477 2473 2464 2459 2464 2480 2489 2485 2472 2476 2483 2474 2466 2464 2443 2433 2426 2417 2405 2393 2376 2358 2332 2306 2294 2282 2271 2259 2243 2228 2221 2213 2201 2190 2176 2163 2150 2137 2125 2113 2105 2096 2090 2083 2076 2067 2055 2042 2029 2017 2006 1998 1991 1983 1974 1966 1958 1953 1947 1941 1935 1929 1923 1919
1943 1960 1995 2007 2000 2022 2047 2043 2076 2081 2076 2067 2060 2049 2036 2024 2005 1990 1975 1965 1958 1948 1939 1933 1933 1930 1930 1922 1915 1905 1899 1893 1891 1883 1878 1879 1878 1877 1876 1877 1877 1886 1885 1902 1901 1903 1904 1911 1917 1916 1910 1907 1895 1897 1897 1899 1903 1893 1891 1888 1884 1879 1875 1873 1866 1864 1868 1877 1887 1894 1907 1915 1924 1938 1952 1959 1961 1963 2008 2012 2014 2012 2017 2023 2032 2037 2040 2050 2067 2072 2081 2085 2096 2107 2131 2158 2164 2205 2186 2242 2243 2247 2238 2240 2247 2248 2267 2273 2282 2298 2319 2330 2331 2333 2345 2363 2389 2406 2415 2429 2442 2454 2456 2453 2446 2440 2448 2459 2465 2459 2448 2455 2461 2465 2459 2451 2431 2421 2413 2403 2391 2376 2362 2345 2325 2307 2289 2277 2265 2251 2236 2223 2214 2207 2198 2187 2177 2168 2155 2142 2131 2120 2108 2097 2086 2077 2068 2059 2047 2037 2027 2017 2008 2000 1993 1984 1976 1971 1964 1956 1950 1945 1939 1935 1930 1925
1927 1937 1939 1961 1980 1994 2024 2037 2029 2018 2033 2022 2021 2008 2013 2003 1990 1983 1973 1964 1954 1941 1922 1913 1918 1917 1908 1899 1872 1858 1856 1855 1853 1856 1857 1861 1861 1860 1859 1854 1854 1854 1851 1868 1879 1881 1880 1885 1893 1893 1893 1885 1879 1873 1874 1870 1868 1865 1867 1863 1860 1857 1855 1852 1852 1854 1853 1864 1879 1886 1890 1895 1899 1905 1912 1925 1936 1950 1964 2022 2015 2017 2020 2028 2035 2037 2037 2041 2054 2061 2070 2083 2093 2103 2112 2127 2135 2140 2149 2159 2192 2188 2210 2211 2229 2227 2242 2258 2269 2279 2300 2311 2312 2313 2320 2337 2350 2360 2376 2392 2409 2424 2430 2430 2424 2420 2422 2424 2426 2415 2425 2431 2439 2444 2442 2445 2427 2411 2400 2389 2376 2366 2357 2341 2319 2301 2289 2275 2260 2246 2232 2220 2210 2201 2191 2182 2172 2161 2150 2136 2122 2111 2102 2090 2079 2073 2066 2054 2042 2033 2026 2017 2008 2001 1992 1983 1978 1972 1967 1961 1955 1949 1944 1938 1934 1929
1910 1915 1919 1931 1944 1942 1943 1941 1958 1992 1987 1974 1972 1976 1970 1975 1970 1967 1962 1951 1937 1925 1908 1898 1887 1879 1878 1864 1844 1840 1831 1839 1832 1832 1834 1833 1837 1839 1839 1830 1831 1830 1833 1839 1856 1864 1865 1868 1871 1876 1872 1868 1860 1853 1851 1848 1847 1847 1845 1842 1839 1836 1835 1836 1839 1842 1848 1853 1864 1876 1887 1897 1910 1915 1930 1942 1959 1970 1982 1999 2012 2015 2030 2036 2038 2039 2037 2040 2047 2054 2064 2073 2084 2093 2103 2115 2124 2132 2145 2154 2166 2182 2192 2201 2209 2216 2229 2247 2257 2269 2279 2288 2292 2294 2299 2308 2320 2331 2341 2359 2375 2388 2399 2398 2401 2401 2397 2395 2395 2398 2404 2411 2420 2428 2430 2418 2406 2398 2386 2371 2361 2352 2338 2320 2305 2292 2277 2261 2251 2243 2229 2215 2206 2196 2186 2177 2166 2152 2140 2128 2115 2105 2095 2086 2077 2069 2061 2052 2042 2034 2026 2017 2008 2001 1994 1987 1980 1975 1971 1965 1959 1954 1949 1944 1939 1934
1887 1893 1903 1916 1913 1907 1911 1910 1918 1923 1915 1900 1898 1928 1944 1938 1942 1944 1936 1928 1916 1893 1877 1869 1858 1848 1836 1822 1813 1810 1827 1825 1809 1807 1811 1815 1815 1816 1816 1808 1808 1814 1822 1826 1835 1844 1852 1849 1851 1855 1855 1852 1846 1840 1835 1829 1827 1829 1826 1824 1823 1824 1823 1826 1832 1841 1851 1863 1874 1886 1900 1915 1924 1931 1942 1953 1965 1976 1990 2007 2019 2031 2036 2035 2038 2041 2041 2044 2049 2058 2065 2070 2073 2085 2093 2106 2112 2123 2139 2148 2156 2174 2190 2195 2203 2212 2223 2235 2244 2252 2260 2268 2271 2279 2285 2294 2305 2313 2322 2337 2349 2362 2367 2372 2378 2380 2378 2377 2380 2380 2383 2388 2398 2407 2408 2402 2393 2382 2370 2359 2349 2336 2323 2308 2294 2279 2265 2258 2249 2235 2222 2211 2202 2191 2182 2173 2159 2147 2137 2127 2116 2105 2094 2085 2076 2069 2061 2053 2046 2038 2028 2019 2011 2005 2000 1993 1987 1981 1975 1969 1964 1961 1958 1953 1946 1940
1865 1863 1870 1876 1871 1877 1879 1875 1884 1892 1903 1894 1888 1882 1875 1862 1858 1858 1862 1869 1871 1855 1843 1834 1831 1817 1801 1789 1784 1788 1801 1794 1782 1783 1788 1789 1800 1789 1787 1785 1786 1797 1808 1817 1821 1827 1830 1835 1835 1839 1839 1836 1833 1827 1819 1813 1813 1811 1810 1810 1810 1814 1818 1825 1834 1844 1856 1870 1882 1894 1905 1915 1926 1936 1945 1960 1974 1986 1999 2017 2032 2040 2043 2045 2044 2049 2049 2049 2054 2060 2065 2067 2074 2083 2093 2102 2109 2120 2135 2149 2158 2168 2179 2189 2197 2207 2215 2223 2231 2239 2247 2253 2260 2267 2275 2284 2289 2302 2315 2323 2335 2344 2349 2351 2356 2360 2361 2361 2362 2362 2362 2364 2375 2383 2389 2386 2377 2372 2362 2350 2342 2332 2318 2303 2289 2277 2265 2255 2243 2231 2219 2210 2200 2190 2181 2168 2156 2146 2136 2127 2118 2108 2097 2086 2078 2071 2066 2060 2053 2045 2035 2024 2018 2011 2007 2003 1998 1991 1984 1977 1973 1969 1965 1960 1954 1946
1844 1832 1829 1831 1836 1835 1832 1830 1829 1848 1839 1829 1825 1826 1819 1819 1820 1821 1817 1814 1802 1794 1799 1790 1771 1765 1762 1763 1767 1774 1765 1758 1748 1756 1760 1760 1757 1760 1763 1764 1770 1780 1798 1809 1811 1814 1819 1822 1823 1825 1825 1822 1815 1807 1804 1802 1801 1799 1797 1797 1803 1810 1819 1827 1836 1846 1858 1870 1882 1893 1904 1914 1926 1937 1950 1967 1986 2005 2026 2038 2046 2050 2052 2055 2058 2061 2058 2055 2059 2065 2068 2064 2076 2081 2090 2090 2110 2118 2138 2147 2154 2156 2167 2178 2191 2200 2209 2217 2226 2235 2240 2244 2253 2258 2268 2275 2284 2296 2309 2318 2319 2322 2330 2335 2339 2340 2343 2343 2345 2347 2353 2358 2367 2374 2374 2373 2374 2365 2358 2348 2339 2329 2315 2299 2287 2276 2270 2263 2248 2231 2219 2211 2203 2193 2183 2172 2161 2151 2141 2131 2123 2112 2099 2090 2083 2079 2073 2067 2062 2054 2044 2034 2026 2019 2016 2014 2010 2004 1995 1986 1981 1976 1973 1969 1964 1957
1799 1794 1793 1796 1798 1808 1807 1804 1800 1791 1779 1777 1779 1775 1772 1771 1775 1762 1750 1740 1739 1739 1738 1736 1743 1742 1740 1747 1752 1745 1742 1730 1724 1725 1736 1734 1734 1741 1746 1750 1754 1772 1789 1794 1797 1801 1806 1808 1810 1810 1809 1805 1800 1795 1792 1792 1791 1788 1790 1796 1805 1816 1826 1836 1845 1855 1865 1875 1884 1893 1907 1920 1937 1951 1966 1982 1998 2016 2028 2042 2056 2064 2068 2070 2071 2072 2073 2071 2070 2074 2078 2080 2080 2082 2083 2089 2097 2106 2118 2127 2135 2152 2169 2182 2193 2201 2208 2216 2225 2233 2238 2247 2251 2258 2266 2276 2285 2293 2300 2302 2306 2310 2317 2326 2329 2331 2331 2333 2334 2339 2346 2355 2367 2370 2372 2377 2375 2371 2364 2356 2347 2331 2316 2304 2292 2283 2277 2269 2254 2238 2227 2220 2210 2200 2189 2179 2169 2160 2151 2143 2136 2126 2112 2102 2099 2093 2082 2076 2068 2060 2053 2043 2033 2027 2023 2022 2020 2014 2004 1995 1990 1990 1990 1989 1985 1979
1759 1762 1773 1770 1768 1778 1779 1781 1774 1758 1752 1749 1746 1736 1731 1723 1716 1719 1719 1718 1714 1715 1719 1721 1726 1724 1731 1736 1734 1733 1725 1717 1708 1711 1717 1723 1724 1731 1737 1740 1742 1761 1778 1780 1781 1787 1792 1795 1796 1797 1796 1791 1787 1785 1782 1780 1779 1785 1790 1802 1815 1827 1838 1846 1854 1862 1870 1879 1888 1901 1915 1931 1949 1970 1987 2002 2014 2023 2034 2048 2061 2074 2082 2087 2092 2097 2096 2090 2088 2089 2089 2087 2083 2084 2084 2087 2096 2108 2121 2133 2151 2168 2180 2189 2197 2205 2213 2220 2226 2233 2243 2250 2256 2260 2266 2275 2283 2289 2291 2293 2296 2303 2309 2316 2321 2324 2325 2327 2328 2334 2343 2352 2366 2370 2378 2386 2388 2385 2377 2368 2357 2345 2329 2314 2302 2295 2289 2279 2267 2257 2247 2239 2228 2215 2203 2189 2178 2169 2164 2157 2151 2147 2138 2127 2120 2112 2101 2091 2080 2071 2061 2050 2042 2037 2035 2034 2031 2026 2017 2009 2005 2004 2004 2001 1997 1990
1733 1738 1742 1745 1747 1750 1745 1744 1740 1734 1726 1719 1719 1708 1708 1707 1707 1704 1705 1705 1703 1703 1704 1703 1700 1706 1703 1712 1716 1716 1708 1702 1698 1697 1705 1708 1714 1723 1730 1734 1739 1751 1765 1768 1770 1774 1779 1781 1783 1785 1782 1779 1776 1774 1772 1772 1777 1785 1798 1809 1820 1830 1842 1850 1857 1865 1874 1884 1894 1904 1915 1935 1961 1980 1998 2014 2025 2036 2045 2058 2073 2085 2095 2103 2108 2111 2109 2107 2105 2105 2104 2100 2096 2093 2093 2098 2107 2117 2128 2140 2155 2172 2185 2196 2203 2208 2214 2223 2227 2231 2236 2243 2249 2255 2263 2272 2278 2284 2285 2284 2287 2292 2297 2299 2302 2309 2317 2321 2326 2331 2338 2347 2359 2369 2381 2393 2402 2402 2393 2384 2371 2357 2342 2330 2319 2310 2302 2292 2283 2272 2262 2253 2242 2230 2216 2203 2191 2183 2177 2170 2164 2156 2147 2139 2135 2130 2119 2108 2096 2085 2074 2064 2058 2055 2052 2048 2045 2041 2035 2028 2023 2018 2017 2016 2010 2002
1720 1718 1718 1715 1717 1720 1722 1717 1710 1704 1699 1698 1694 1685 1683 1684 1687 1688 1684 1680 1680 1679 1672 1679 1682 1685 1685 1692 1696 1696 1689 1686 1683 1684 1690 1695 1709 1716 1723 1730 1732 1740 1750 1757 1759 1762 1765 1768 1770 1770 1770 1765 1764 1764 1766 1769 1777 1791 1803 1812 1821 1832 1842 1851 1859 1867 1877 1889 1903 1914 1931 1952 1974 1993 2013 2029 2040 2053 2070 2082 2091 2099 2107 2115 2122 2125 2127 2125 2123 2122 2119 2113 2107 2104 2106 2109 2117 2126 2136 2147 2160 2173 2186 2194 2202 2207 2211 2217 2223 2226 2228 2231 2236 2243 2250 2258 2264 2269 2272 2274 2279 2285 2290 2296 2300 2304 2311 2318 2325 2330 2338 2348 2361 2375 2386 2403 2418 2419 2416 2405 2386 2370 2360 2352 2343 2330 2317 2309 2301 2291 2277 2265 2254 2242 2232 2221 2212 2205 2199 2191 2181 2171 2157 2148 2144 2141 2139 2135 2132 2120 2095 2077 2076 2069 2064 2058 2053 2047 2042 2040 2036 2032 2030 2029 2026 2023
