ncols        173
nrows        110
xllcorner    11.98375
yllcorner    496.51625
cellsize     30
2317 2323 2324 2323 2323 2323 2327 2334 2341 2349 2357 2364 2373 2382 2398 2415 2425 2430 2441 2458 2489 2516 2541 2561 2568 2574 2578 2582 2589 2590 2594 2596 2590 2592 2594 2592 2601 2603 2609 2613 2613 2619 2623 2625 2628 2631 2633 2636 2643 2655 2674 2698 2728 2755 2790 2831 2859 2881 2921 2926 2934 2941 2950 2962 2957 2901 2835 2744 2670 2636 2580 2517 2499 2452 2420 2405 2378 2357 2333 2337 2324 2313 2299 2285 2271 2257 2243 2231 2220 2209 2202 2199 2198 2195 2191 2188 2183 2179 2168 2153 2131 2111 2094 2083 2079 2064 2043 2031 2027 2023 2021 2019 2015 2012 2009 2008 2006 2006 2006 2006 2008 2011 2017 2030 2043 2052 2063 2072 2079 2088 2099 2112 2125 2135 2141 2147 2153 2159 2167 2174 2180 2186 2189 2193 2195 2196 2189 2180 2167 2135 2107 2100 2097 2099 2103 2107 2112 2117 2122 2126 2133 2143 2154 2164 2170 2172 2165 2155 2143 2127 2108 2089 2070
2324 2323 2327 2328 2331 2336 2339 2344 2350 2356 2363 2372 2381 2393 2411 2427 2445 2451 2455 2501 2516 2547 2561 2584 2596 2598 2603 2610 2611 2626 2630 2630 2618 2617 2618 2613 2618 2622 2625 2625 2625 2626 2625 2629 2628 2628 2632 2638 2648 2651 2672 2691 2713 2744 2790 2828 2866 2873 2914 2925 2932 2941 2939 2941 2901 2840 2751 2710 2674 2602 2525 2502 2444 2417 2410 2378 2355 2358 2348 2336 2324 2308 2293 2281 2269 2258 2247 2236 2225 2214 2205 2202 2198 2195 2192 2188 2181 2168 2155 2143 2138 2126 2120 2112 2095 2070 2052 2042 2038 2034 2027 2022 2019 2017 2015 2013 2013 2015 2016 2015 2014 2018 2028 2038 2048 2057 2064 2072 2082 2097 2110 2120 2130 2139 2147 2153 2159 2165 2173 2180 2186 2192 2197 2202 2205 2205 2200 2187 2171 2153 2130 2113 2110 2110 2113 2114 2118 2122 2126 2131 2137 2144 2156 2168 2173 2172 2162 2146 2135 2125 2109 2089 2074
2332 2341 2334 2339 2346 2352 2355 2354 2355 2361 2369 2388 2396 2409 2418 2439 2446 2462 2489 2526 2538 2552 2588 2593 2599 2615 2633 2627 2626 2642 2635 2635 2626 2626 2624 2637 2643 2653 2649 2642 2640 2638 2633 2632 2636 2638 2638 2645 2652 2654 2675 2687 2715 2749 2779 2812 2835 2869 2894 2911 2927 2934 2935 2908 2880 2841 2736 2687 2603 2568 2517 2436 2406 2404 2380 2362 2361 2350 2340 2332 2321 2308 2292 2278 2268 2257 2245 2235 2227 2221 2214 2208 2204 2197 2191 2185 2176 2165 2153 2153 2154 2152 2149 2132 2110 2084 2063 2056 2050 2045 2040 2034 2028 2025 2020 2017 2018 2021 2024 2024 2023 2026 2034 2044 2054 2061 2064 2074 2088 2105 2119 2128 2138 2147 2155 2160 2165 2172 2178 2183 2190 2198 2204 2210 2215 2214 2208 2194 2178 2160 2144 2131 2124 2121 2116 2116 2122 2127 2133 2138 2142 2151 2164 2172 2178 2165 2146 2133 2124 2113 2096 2083 2071
2343 2357 2355 2356 2358 2367 2375 2386 2393 2397 2402 2400 2408 2424 2436 2440 2453 2466 2505 2531 2544 2562 2588 2604 2621 2636 2648 2659 2664 2662 2673 2667 2668 2662 2656 2663 2663 2665 2662 2657 2658 2652 2644 2638 2639 2644 2646 2654 2658 2665 2671 2685 2696 2734 2780 2811 2841 2867 2895 2901 2904 2910 2903 2885 2843 2756 2687 2638 2583 2531 2486 2397 2391 2373 2360 2353 2347 2339 2331 2322 2312 2298 2285 2274 2263 2253 2241 2232 2228 2225 2222 2218 2212 2206 2194 2184 2178 2173 2172 2172 2171 2166 2151 2133 2111 2090 2074 2066 2063 2060 2056 2048 2042 2036 2032 2029 2028 2031 2033 2033 2032 2035 2042 2051 2059 2063 2068 2079 2097 2118 2127 2136 2145 2154 2160 2165 2170 2175 2181 2188 2195 2203 2212 2218 2222 2221 2215 2200 2181 2167 2154 2141 2130 2124 2120 2120 2126 2134 2138 2144 2153 2162 2170 2176 2175 2159 2133 2118 2108 2098 2088 2078 2066
2346 2352 2362 2371 2376 2382 2385 2403 2412 2413 2415 2415 2420 2427 2434 2446 2463 2477 2508 2531 2544 2561 2590 2615 2630 2653 2653 2672 2680 2691 2697 2699 2706 2707 2710 2708 2683 2675 2668 2667 2666 2662 2650 2645 2648 2648 2647 2653 2664 2662 2666 2680 2698 2735 2776 2804 2831 2862 2880 2888 2892 2888 2871 2829 2767 2728 2673 2591 2540 2499 2436 2392 2358 2348 2347 2342 2336 2328 2321 2313 2302 2289 2278 2271 2264 2252 2240 2233 2229 2227 2224 2222 2219 2211 2200 2192 2188 2187 2185 2182 2177 2170 2154 2136 2124 2113 2102 2094 2085 2076 2067 2058 2049 2043 2042 2043 2044 2045 2045 2042 2040 2043 2050 2060 2067 2074 2081 2091 2108 2121 2129 2137 2148 2157 2163 2168 2174 2180 2186 2194 2202 2210 2217 2222 2225 2224 2214 2200 2184 2170 2157 2143 2134 2129 2126 2126 2130 2135 2139 2144 2151 2161 2170 2176 2170 2154 2132 2109 2097 2089 2079 2069 2060
2336 2343 2350 2365 2370 2376 2388 2405 2419 2423 2426 2425 2428 2429 2437 2447 2472 2491 2503 2532 2548 2572 2593 2611 2637 2655 2672 2683 2700 2708 2723 2722 2727 2743 2745 2740 2718 2705 2686 2676 2673 2673 2663 2659 2651 2654 2653 2656 2660 2664 2675 2687 2721 2741 2775 2798 2826 2844 2856 2879 2877 2865 2834 2803 2756 2692 2641 2570 2522 2460 2394 2371 2355 2337 2339 2333 2326 2320 2310 2300 2292 2284 2274 2266 2256 2249 2242 2234 2228 2226 2225 2222 2218 2210 2202 2198 2195 2193 2191 2187 2182 2173 2164 2152 2140 2132 2120 2110 2100 2089 2082 2075 2065 2057 2057 2058 2058 2058 2059 2059 2057 2059 2064 2072 2080 2086 2094 2101 2110 2123 2134 2143 2152 2160 2165 2172 2180 2186 2193 2200 2207 2215 2221 2224 2226 2224 2213 2200 2187 2174 2162 2151 2144 2138 2135 2132 2132 2133 2138 2147 2154 2159 2167 2173 2167 2142 2116 2099 2088 2078 2068 2059 2051
2321 2333 2346 2358 2361 2371 2385 2403 2427 2436 2426 2431 2436 2432 2434 2449 2467 2487 2499 2523 2549 2570 2596 2613 2653 2665 2678 2699 2718 2723 2736 2752 2776 2773 2788 2794 2771 2726 2709 2691 2693 2687 2676 2670 2663 2665 2666 2668 2671 2674 2689 2705 2730 2750 2773 2801 2810 2835 2839 2848 2854 2834 2816 2772 2717 2644 2599 2558 2511 2439 2403 2366 2326 2335 2331 2326 2319 2311 2303 2296 2289 2281 2272 2262 2255 2248 2244 2240 2233 2226 2223 2219 2213 2206 2201 2198 2197 2196 2193 2189 2185 2179 2173 2164 2155 2146 2136 2125 2115 2104 2094 2086 2079 2077 2076 2074 2071 2071 2072 2074 2075 2076 2083 2091 2095 2099 2104 2109 2120 2132 2141 2149 2157 2164 2171 2178 2183 2188 2195 2202 2209 2215 2221 2225 2228 2224 2216 2202 2189 2179 2169 2157 2147 2143 2141 2138 2135 2137 2145 2154 2161 2167 2171 2172 2164 2141 2110 2089 2075 2062 2053 2046 2040
2309 2323 2334 2345 2345 2358 2379 2389 2402 2418 2425 2416 2420 2427 2431 2440 2445 2475 2492 2520 2557 2590 2605 2628 2652 2668 2692 2712 2727 2736 2758 2779 2788 2804 2812 2813 2792 2772 2736 2734 2717 2701 2689 2679 2674 2676 2681 2688 2695 2703 2710 2719 2739 2764 2789 2806 2814 2820 2831 2833 2832 2815 2790 2746 2687 2648 2587 2547 2467 2424 2379 2351 2344 2336 2329 2321 2313 2306 2299 2293 2286 2278 2270 2262 2255 2250 2245 2242 2237 2232 2227 2224 2218 2212 2206 2200 2200 2200 2198 2195 2192 2190 2188 2184 2180 2173 2163 2150 2133 2119 2109 2100 2090 2088 2087 2085 2083 2087 2092 2093 2092 2096 2102 2106 2108 2109 2112 2120 2131 2143 2151 2156 2164 2171 2177 2182 2185 2189 2196 2203 2210 2216 2220 2222 2223 2220 2214 2203 2193 2183 2171 2159 2149 2147 2146 2143 2143 2146 2151 2161 2168 2172 2175 2173 2161 2132 2098 2077 2062 2049 2041 2035 2032
2294 2303 2316 2323 2329 2352 2367 2370 2370 2388 2400 2403 2403 2411 2408 2420 2441 2458 2469 2512 2552 2591 2613 2635 2652 2665 2694 2721 2740 2757 2782 2788 2812 2810 2820 2814 2811 2799 2780 2755 2734 2717 2700 2695 2695 2690 2696 2698 2704 2713 2726 2736 2757 2786 2806 2820 2820 2821 2823 2819 2806 2801 2765 2698 2663 2617 2567 2505 2441 2406 2358 2351 2344 2334 2325 2316 2307 2301 2293 2286 2280 2273 2267 2261 2256 2251 2247 2245 2245 2242 2238 2236 2232 2225 2217 2209 2205 2205 2206 2206 2205 2207 2206 2206 2204 2201 2188 2171 2152 2133 2118 2106 2100 2100 2102 2100 2106 2112 2111 2110 2110 2112 2114 2116 2118 2121 2124 2133 2145 2153 2160 2166 2172 2179 2185 2190 2193 2197 2202 2207 2212 2217 2221 2225 2227 2228 2218 2208 2199 2189 2178 2166 2154 2148 2147 2147 2149 2154 2162 2169 2175 2179 2179 2169 2148 2111 2082 2070 2058 2047 2037 2031 2028
2259 2278 2288 2302 2318 2335 2351 2355 2362 2369 2378 2384 2388 2393 2375 2415 2419 2456 2470 2495 2537 2581 2617 2633 2655 2675 2693 2716 2742 2762 2776 2788 2808 2812 2822 2823 2812 2812 2794 2777 2755 2736 2715 2721 2718 2713 2712 2716 2718 2729 2748 2766 2786 2802 2818 2826 2830 2830 2819 2811 2809 2784 2750 2704 2651 2584 2522 2468 2436 2372 2366 2355 2342 2329 2321 2317 2309 2298 2290 2281 2274 2269 2264 2260 2255 2250 2247 2247 2246 2246 2244 2241 2237 2230 2222 2216 2213 2212 2214 2215 2215 2217 2220 2220 2219 2217 2214 2213 2211 2214 2176 2122 2111 2109 2116 2128 2130 2126 2127 2129 2129 2128 2127 2125 2129 2129 2140 2150 2152 2160 2165 2172 2180 2186 2192 2197 2202 2206 2209 2212 2214 2218 2224 2228 2231 2231 2227 2220 2212 2201 2183 2165 2158 2156 2155 2156 2161 2168 2173 2178 2184 2185 2182 2169 2139 2107 2084 2070 2059 2050 2041 2034 2029
2245 2253 2266 2279 2297 2306 2321 2338 2349 2360 2362 2369 2376 2384 2387 2371 2418 2443 2464 2486 2517 2568 2627 2640 2647 2681 2700 2719 2737 2745 2769 2774 2782 2804 2813 2816 2817 2817 2811 2799 2786 2748 2742 2736 2726 2719 2721 2727 2745 2765 2780 2796 2812 2825 2842 2842 2838 2834 2823 2817 2801 2766 2727 2675 2576 2528 2478 2450 2417 2395 2374 2363 2349 2336 2328 2319 2310 2300 2290 2280 2271 2264 2260 2255 2252 2250 2248 2245 2245 2244 2243 2242 2238 2234 2229 2224 2224 2226 2228 2231 2233 2232 2232 2233 2229 2226 2223 2225 2235 2242 2244 2249 2256 2236 2184 2147 2147 2146 2151 2172 2189 2197 2176 2154 2146 2155 2160 2156 2159 2163 2166 2174 2182 2190 2195 2200 2204 2209 2213 2216 2220 2224 2229 2233 2235 2235 2233 2229 2224 2206 2183 2171 2165 2165 2166 2168 2176 2183 2187 2191 2191 2189 2178 2164 2141 2111 2085 2069 2062 2055 2048 2041 2034
2234 2241 2252 2268 2280 2286 2295 2307 2326 2335 2346 2353 2361 2368 2380 2376 2390 2433 2461 2487 2509 2549 2625 2645 2645 2685 2691 2704 2719 2741 2744 2757 2758 2766 2776 2801 2814 2823 2827 2821 2808 2793 2768 2750 2741 2748 2744 2751 2769 2782 2803 2822 2831 2840 2837 2837 2836 2823 2814 2807 2787 2771 2688 2611 2536 2486 2460 2434 2417 2397 2386 2370 2355 2341 2332 2324 2312 2301 2291 2280 2271 2264 2258 2255 2254 2252 2250 2248 2246 2246 2245 2246 2243 2241 2239 2238 2240 2244 2246 2246 2248 2250 2250 2248 2247 2246 2247 2251 2260 2269 2271 2270 2270 2269 2231 2194 2195 2197 2207 2216 2232 2255 2257 2263 2195 2182 2178 2170 2169 2167 2170 2177 2186 2194 2200 2205 2210 2214 2218 2220 2225 2231 2235 2239 2241 2242 2241 2237 2231 2214 2196 2184 2175 2175 2177 2182 2185 2190 2194 2197 2200 2193 2178 2161 2147 2115 2082 2074 2068 2061 2052 2044 2036
2223 2232 2243 2256 2269 2278 2286 2294 2298 2314 2327 2339 2345 2358 2370 2380 2390 2406 2424 2449 2479 2531 2567 2620 2640 2652 2680 2689 2694 2710 2712 2724 2727 2734 2757 2769 2790 2810 2825 2823 2825 2807 2791 2783 2778 2764 2769 2782 2788 2806 2815 2823 2830 2833 2837 2832 2820 2813 2808 2795 2778 2716 2652 2581 2506 2459 2438 2424 2421 2399 2385 2371 2356 2342 2330 2321 2312 2302 2292 2282 2273 2266 2259 2256 2254 2253 2251 2249 2249 2249 2249 2250 2250 2250 2248 2249 2251 2253 2253 2257 2262 2267 2271 2271 2268 2269 2270 2278 2285 2286 2285 2282 2272 2251 2236 2232 2236 2244 2248 2256 2266 2274 2293 2310 2220 2207 2200 2191 2181 2178 2181 2187 2195 2202 2209 2215 2220 2224 2226 2229 2233 2236 2241 2243 2245 2249 2250 2249 2244 2227 2207 2195 2190 2191 2191 2194 2198 2202 2207 2211 2210 2201 2182 2160 2136 2107 2088 2080 2073 2063 2053 2045 2039
2215 2225 2236 2246 2260 2273 2283 2291 2296 2302 2317 2331 2340 2349 2360 2373 2389 2399 2419 2433 2473 2496 2536 2567 2594 2623 2647 2657 2680 2688 2700 2713 2725 2732 2733 2754 2770 2785 2813 2832 2837 2833 2811 2797 2777 2772 2779 2782 2794 2805 2812 2817 2822 2830 2827 2823 2815 2808 2800 2793 2723 2661 2600 2551 2492 2447 2427 2419 2401 2386 2375 2365 2352 2339 2332 2322 2311 2301 2292 2283 2274 2266 2260 2255 2252 2250 2250 2250 2251 2252 2254 2256 2256 2254 2253 2254 2257 2259 2262 2266 2272 2278 2281 2282 2280 2282 2289 2292 2292 2291 2287 2283 2278 2269 2252 2256 2269 2278 2291 2300 2298 2311 2326 2244 2264 2266 2275 2216 2197 2193 2195 2199 2203 2212 2219 2226 2230 2232 2236 2240 2241 2243 2244 2248 2252 2255 2255 2254 2242 2226 2212 2200 2199 2199 2203 2208 2210 2215 2221 2227 2226 2214 2195 2174 2144 2112 2093 2082 2070 2061 2054 2047 2041
2213 2220 2231 2241 2253 2267 2279 2288 2293 2302 2313 2326 2334 2342 2357 2371 2382 2393 2399 2423 2446 2471 2476 2525 2555 2573 2593 2616 2641 2658 2686 2688 2701 2712 2720 2736 2759 2772 2802 2816 2832 2831 2814 2796 2781 2779 2777 2776 2787 2801 2811 2816 2819 2829 2827 2823 2813 2800 2791 2731 2679 2623 2568 2507 2469 2434 2415 2413 2398 2384 2371 2360 2353 2344 2333 2321 2311 2302 2292 2282 2274 2266 2260 2256 2253 2251 2253 2256 2258 2262 2263 2262 2260 2259 2260 2262 2266 2269 2271 2275 2282 2288 2290 2291 2294 2299 2301 2301 2299 2296 2292 2287 2284 2281 2282 2293 2318 2332 2333 2329 2332 2339 2349 2359 2318 2304 2301 2243 2221 2211 2208 2214 2220 2229 2234 2237 2240 2243 2247 2250 2252 2252 2253 2255 2259 2262 2261 2259 2251 2236 2220 2209 2206 2207 2210 2215 2222 2228 2236 2244 2244 2231 2207 2179 2155 2129 2100 2077 2067 2061 2056 2050 2042
2212 2219 2228 2237 2249 2265 2275 2283 2288 2297 2309 2319 2330 2342 2353 2362 2375 2387 2397 2404 2409 2442 2454 2473 2498 2525 2541 2565 2598 2618 2616 2634 2675 2691 2703 2718 2735 2749 2765 2798 2824 2819 2812 2804 2792 2780 2783 2789 2794 2804 2811 2812 2819 2820 2825 2819 2805 2792 2727 2680 2636 2590 2549 2503 2464 2420 2411 2398 2392 2378 2364 2356 2348 2338 2327 2317 2308 2298 2290 2280 2271 2264 2261 2260 2259 2260 2263 2266 2268 2269 2270 2269 2267 2267 2268 2269 2271 2273 2277 2285 2291 2295 2297 2298 2300 2305 2309 2308 2307 2305 2303 2298 2297 2296 2303 2320 2331 2339 2349 2355 2362 2370 2378 2385 2339 2320 2299 2255 2238 2228 2228 2232 2239 2241 2243 2245 2247 2252 2258 2260 2262 2263 2265 2267 2269 2271 2272 2269 2263 2246 2227 2215 2208 2210 2217 2226 2236 2244 2251 2256 2252 2239 2217 2183 2159 2129 2094 2077 2066 2061 2057 2049 2040
2211 2220 2230 2237 2252 2262 2275 2276 2279 2288 2301 2312 2326 2338 2349 2357 2368 2382 2395 2404 2410 2413 2438 2454 2467 2505 2524 2533 2567 2566 2605 2606 2618 2654 2676 2696 2708 2718 2743 2761 2789 2808 2809 2807 2799 2797 2800 2800 2803 2809 2809 2812 2809 2811 2813 2807 2794 2715 2684 2639 2598 2565 2534 2492 2437 2409 2391 2389 2380 2369 2360 2352 2343 2334 2325 2313 2301 2293 2286 2278 2271 2267 2264 2265 2267 2271 2273 2274 2275 2275 2274 2274 2272 2271 2271 2272 2275 2279 2284 2290 2296 2299 2299 2300 2303 2308 2312 2316 2318 2320 2322 2325 2329 2333 2336 2341 2347 2356 2365 2369 2373 2382 2391 2384 2361 2332 2305 2263 2249 2243 2245 2252 2251 2252 2251 2251 2255 2259 2264 2269 2270 2272 2274 2276 2278 2280 2281 2278 2273 2259 2240 2225 2220 2225 2229 2236 2245 2254 2261 2264 2258 2231 2200 2179 2163 2143 2108 2078 2066 2061 2056 2049 2042
2211 2219 2224 2233 2243 2254 2264 2271 2276 2280 2294 2303 2319 2332 2341 2354 2365 2374 2388 2403 2411 2421 2418 2442 2457 2479 2502 2518 2536 2547 2548 2564 2584 2627 2650 2669 2678 2692 2723 2747 2773 2795 2806 2808 2803 2801 2805 2797 2802 2810 2812 2798 2792 2795 2778 2761 2714 2681 2646 2611 2573 2552 2518 2463 2421 2399 2374 2373 2368 2364 2355 2346 2338 2329 2318 2305 2296 2288 2282 2278 2276 2274 2272 2273 2276 2280 2283 2284 2283 2284 2283 2280 2276 2274 2274 2279 2285 2291 2295 2298 2301 2303 2303 2305 2308 2312 2318 2322 2328 2334 2338 2343 2350 2353 2354 2357 2360 2368 2374 2378 2382 2387 2388 2386 2377 2349 2318 2280 2258 2255 2261 2267 2267 2265 2264 2263 2264 2267 2272 2277 2279 2280 2282 2284 2286 2287 2286 2285 2281 2273 2257 2246 2241 2235 2238 2242 2251 2260 2267 2268 2244 2220 2198 2178 2160 2140 2112 2088 2075 2068 2061 2053 2045
2209 2212 2222 2235 2243 2253 2262 2272 2276 2283 2293 2302 2310 2320 2332 2347 2359 2369 2378 2391 2403 2411 2416 2445 2492 2472 2494 2509 2523 2532 2541 2548 2565 2594 2639 2654 2669 2681 2700 2723 2752 2771 2781 2794 2800 2797 2804 2802 2800 2801 2795 2785 2776 2770 2740 2714 2689 2649 2611 2583 2558 2539 2494 2428 2398 2387 2377 2367 2361 2354 2346 2338 2329 2321 2313 2304 2294 2286 2284 2285 2284 2282 2283 2284 2286 2289 2290 2292 2291 2290 2288 2285 2283 2282 2283 2288 2293 2297 2299 2303 2306 2307 2309 2309 2311 2315 2319 2327 2335 2341 2347 2353 2358 2361 2360 2359 2363 2369 2376 2383 2388 2390 2389 2384 2379 2367 2332 2295 2272 2270 2277 2282 2283 2280 2277 2274 2272 2276 2279 2281 2282 2284 2286 2288 2291 2291 2294 2299 2296 2289 2280 2266 2252 2248 2247 2254 2261 2265 2259 2239 2218 2201 2183 2166 2151 2129 2104 2085 2078 2073 2067 2058 2048
2212 2215 2221 2234 2248 2256 2263 2269 2278 2288 2295 2298 2302 2309 2317 2332 2348 2361 2369 2379 2395 2406 2416 2435 2459 2484 2488 2497 2505 2522 2534 2542 2553 2588 2635 2655 2652 2671 2693 2717 2723 2751 2760 2774 2777 2788 2802 2797 2798 2797 2789 2783 2768 2742 2719 2696 2661 2626 2590 2569 2551 2526 2479 2419 2395 2397 2383 2370 2359 2350 2340 2332 2324 2317 2310 2301 2293 2290 2289 2290 2293 2292 2290 2291 2294 2295 2296 2298 2296 2291 2289 2288 2287 2287 2289 2293 2295 2297 2301 2304 2309 2311 2312 2313 2315 2318 2324 2332 2339 2346 2353 2362 2368 2368 2367 2365 2366 2368 2373 2380 2385 2389 2387 2383 2376 2367 2337 2303 2292 2287 2285 2290 2289 2287 2282 2279 2279 2279 2283 2286 2287 2288 2289 2293 2297 2303 2310 2305 2299 2286 2272 2259 2249 2249 2255 2258 2259 2246 2229 2218 2208 2191 2174 2156 2137 2116 2097 2089 2082 2075 2068 2062 2056
2217 2220 2224 2239 2249 2254 2259 2263 2272 2287 2295 2291 2293 2305 2313 2331 2347 2356 2361 2375 2391 2412 2427 2435 2449 2466 2481 2489 2493 2500 2514 2529 2544 2568 2621 2633 2644 2655 2682 2688 2720 2733 2745 2747 2759 2767 2780 2782 2780 2781 2776 2776 2751 2720 2694 2654 2628 2604 2582 2563 2544 2514 2473 2416 2396 2390 2381 2371 2361 2350 2338 2329 2322 2314 2308 2301 2296 2293 2291 2293 2294 2295 2296 2297 2298 2302 2305 2305 2302 2297 2293 2290 2289 2289 2291 2295 2298 2299 2303 2306 2309 2311 2314 2316 2320 2327 2331 2338 2344 2350 2361 2369 2374 2375 2373 2373 2374 2376 2377 2379 2383 2385 2385 2381 2376 2365 2348 2325 2309 2300 2298 2298 2298 2296 2291 2285 2285 2287 2289 2291 2293 2294 2297 2300 2306 2310 2309 2304 2289 2275 2263 2255 2250 2248 2245 2242 2235 2227 2215 2201 2188 2174 2161 2145 2127 2112 2102 2093 2086 2079 2073 2069 2062
2218 2226 2236 2247 2253 2252 2255 2259 2266 2278 2285 2292 2304 2315 2328 2343 2352 2360 2367 2382 2399 2416 2424 2433 2445 2457 2466 2474 2484 2491 2505 2518 2528 2538 2573 2624 2644 2651 2659 2679 2696 2711 2717 2746 2759 2754 2760 2767 2770 2769 2765 2758 2734 2696 2651 2623 2611 2590 2576 2548 2519 2502 2467 2421 2391 2379 2373 2367 2357 2345 2335 2329 2322 2314 2308 2302 2298 2295 2295 2296 2297 2298 2300 2303 2306 2308 2309 2309 2306 2302 2297 2295 2295 2296 2298 2300 2301 2303 2305 2306 2308 2310 2315 2322 2329 2334 2337 2342 2351 2362 2371 2379 2382 2383 2384 2386 2388 2388 2384 2383 2383 2384 2386 2385 2379 2369 2357 2342 2327 2320 2316 2313 2311 2302 2294 2290 2289 2291 2294 2296 2297 2299 2301 2305 2308 2308 2303 2294 2279 2264 2255 2247 2243 2239 2231 2222 2221 2218 2204 2188 2173 2159 2151 2141 2124 2107 2099 2091 2085 2080 2076 2070 2064
2227 2239 2244 2256 2253 2251 2252 2254 2264 2273 2284 2297 2313 2325 2331 2340 2352 2361 2371 2386 2399 2410 2421 2431 2441 2449 2464 2477 2484 2495 2500 2510 2519 2505 2498 2577 2632 2632 2649 2661 2671 2682 2703 2724 2727 2755 2733 2741 2751 2752 2746 2732 2704 2665 2640 2614 2596 2581 2560 2532 2515 2484 2448 2398 2391 2381 2375 2367 2356 2347 2340 2334 2326 2316 2309 2304 2299 2295 2295 2298 2300 2301 2303 2306 2309 2311 2311 2309 2307 2303 2302 2301 2300 2302 2305 2306 2310 2311 2312 2312 2312 2316 2324 2331 2337 2342 2346 2352 2360 2368 2377 2383 2386 2388 2389 2392 2394 2395 2393 2390 2392 2394 2392 2388 2381 2372 2365 2354 2348 2343 2337 2331 2321 2310 2297 2293 2292 2293 2296 2298 2300 2302 2305 2306 2306 2300 2294 2282 2268 2255 2243 2237 2231 2222 2213 2207 2201 2192 2185 2170 2153 2146 2138 2127 2115 2103 2093 2086 2081 2077 2073 2067 2062
2230 2249 2245 2249 2249 2249 2249 2257 2274 2287 2293 2300 2312 2318 2325 2335 2347 2362 2372 2382 2393 2404 2416 2425 2431 2439 2453 2477 2493 2494 2496 2496 2507 2522 2526 2555 2600 2617 2636 2658 2670 2683 2700 2703 2706 2710 2704 2705 2709 2720 2716 2699 2681 2658 2632 2609 2596 2582 2556 2531 2501 2470 2434 2403 2394 2384 2372 2365 2360 2352 2344 2337 2327 2318 2312 2306 2300 2297 2298 2301 2304 2306 2310 2314 2317 2316 2316 2314 2312 2312 2311 2308 2307 2307 2310 2314 2318 2321 2322 2322 2321 2323 2328 2335 2342 2348 2354 2360 2367 2373 2381 2386 2389 2390 2390 2393 2397 2400 2401 2405 2407 2406 2402 2396 2387 2381 2375 2368 2363 2359 2352 2344 2333 2319 2308 2300 2297 2298 2298 2300 2302 2304 2305 2305 2302 2296 2287 2275 2260 2247 2234 2225 2217 2206 2195 2186 2174 2163 2155 2147 2138 2129 2120 2110 2099 2091 2085 2079 2074 2071 2068 2063 2058
2238 2259 2260 2260 2262 2249 2246 2263 2287 2295 2296 2302 2309 2313 2320 2336 2351 2359 2367 2378 2390 2400 2412 2416 2420 2430 2443 2453 2473 2482 2477 2495 2511 2521 2531 2549 2582 2610 2634 2649 2662 2677 2684 2687 2690 2691 2697 2685 2690 2705 2707 2697 2676 2652 2634 2616 2600 2579 2548 2518 2483 2450 2414 2406 2395 2388 2380 2369 2359 2352 2343 2333 2326 2317 2310 2304 2301 2300 2303 2306 2311 2315 2319 2323 2325 2326 2325 2323 2322 2321 2319 2317 2315 2315 2316 2320 2326 2330 2332 2331 2329 2330 2334 2343 2351 2356 2363 2368 2374 2380 2385 2389 2390 2391 2392 2396 2401 2405 2410 2414 2417 2415 2411 2406 2399 2393 2387 2380 2375 2368 2362 2356 2348 2339 2326 2315 2309 2304 2303 2302 2303 2304 2305 2304 2301 2295 2283 2270 2253 2237 2227 2217 2203 2189 2178 2168 2156 2144 2136 2127 2118 2109 2099 2090 2085 2080 2073 2067 2063 2060 2057 2054 2053
2255 2273 2277 2280 2275 2268 2259 2265 2293 2299 2305 2309 2313 2316 2322 2332 2340 2350 2362 2375 2388 2400 2404 2406 2412 2425 2445 2455 2454 2458 2466 2485 2507 2514 2522 2537 2561 2587 2605 2616 2629 2645 2666 2669 2667 2671 2668 2681 2690 2702 2703 2694 2676 2655 2640 2618 2597 2576 2548 2514 2467 2436 2424 2413 2400 2383 2372 2365 2357 2348 2338 2331 2324 2318 2312 2309 2308 2309 2312 2319 2323 2327 2330 2331 2333 2335 2335 2334 2332 2331 2329 2328 2326 2325 2327 2329 2335 2341 2343 2343 2341 2342 2350 2357 2361 2366 2372 2378 2382 2386 2389 2391 2392 2393 2396 2400 2405 2410 2417 2422 2425 2421 2416 2411 2406 2400 2396 2391 2385 2379 2371 2363 2357 2348 2335 2324 2316 2311 2308 2307 2307 2307 2309 2313 2311 2301 2286 2269 2253 2239 2228 2219 2206 2186 2172 2160 2146 2133 2118 2104 2095 2088 2083 2079 2074 2069 2062 2055 2050 2046 2045 2045 2044
2266 2284 2288 2289 2287 2285 2291 2301 2307 2314 2311 2311 2316 2319 2320 2321 2329 2343 2357 2370 2382 2393 2404 2408 2419 2437 2448 2459 2458 2461 2472 2491 2505 2512 2523 2536 2554 2574 2586 2594 2605 2626 2643 2649 2647 2646 2650 2679 2689 2692 2697 2687 2681 2657 2641 2622 2595 2568 2544 2483 2464 2433 2428 2415 2395 2378 2369 2361 2356 2351 2342 2334 2328 2322 2317 2315 2316 2318 2322 2326 2331 2334 2336 2340 2344 2345 2345 2344 2343 2341 2339 2337 2336 2338 2341 2347 2350 2352 2353 2353 2355 2359 2364 2369 2372 2376 2380 2385 2389 2392 2393 2393 2395 2398 2400 2404 2409 2418 2427 2432 2431 2428 2421 2414 2407 2402 2398 2394 2389 2383 2377 2368 2360 2352 2337 2325 2318 2313 2314 2315 2315 2316 2322 2324 2322 2314 2298 2283 2272 2258 2241 2206 2181 2172 2162 2148 2136 2120 2103 2091 2080 2075 2069 2066 2063 2057 2050 2045 2041 2037 2034 2034 2034
2275 2289 2295 2298 2297 2302 2308 2313 2317 2312 2311 2315 2320 2324 2322 2323 2328 2341 2356 2371 2381 2392 2402 2412 2426 2438 2448 2458 2461 2470 2483 2492 2499 2515 2532 2540 2555 2570 2580 2586 2598 2615 2629 2632 2632 2634 2641 2654 2676 2684 2684 2679 2668 2653 2634 2617 2577 2556 2523 2490 2452 2445 2436 2418 2403 2391 2377 2366 2357 2351 2344 2337 2330 2324 2323 2322 2323 2324 2326 2330 2335 2339 2344 2346 2348 2349 2350 2350 2348 2347 2345 2343 2343 2347 2352 2357 2360 2359 2359 2362 2364 2368 2373 2377 2380 2382 2387 2392 2398 2402 2401 2399 2397 2399 2402 2406 2412 2423 2434 2440 2438 2431 2422 2414 2407 2401 2397 2394 2390 2386 2381 2374 2365 2353 2341 2329 2322 2323 2324 2325 2328 2332 2333 2332 2329 2321 2310 2296 2286 2271 2221 2181 2164 2150 2143 2129 2109 2093 2085 2077 2072 2067 2063 2059 2055 2048 2041 2036 2032 2029 2026 2024 2023
2273 2292 2302 2307 2310 2312 2312 2311 2313 2316 2321 2326 2330 2335 2335 2335 2337 2348 2362 2373 2384 2393 2401 2411 2421 2431 2442 2453 2460 2472 2490 2492 2490 2500 2526 2547 2558 2568 2576 2582 2593 2606 2613 2617 2622 2625 2627 2638 2659 2662 2663 2665 2658 2649 2626 2599 2564 2526 2503 2490 2459 2452 2440 2427 2414 2406 2395 2374 2356 2352 2347 2340 2333 2329 2326 2326 2326 2328 2332 2337 2341 2347 2349 2350 2351 2352 2353 2354 2355 2354 2352 2351 2351 2354 2358 2363 2366 2366 2370 2372 2373 2376 2379 2382 2384 2388 2392 2397 2402 2407 2408 2405 2402 2401 2405 2410 2421 2433 2442 2444 2440 2432 2421 2412 2406 2401 2398 2395 2391 2387 2383 2377 2368 2355 2338 2328 2324 2325 2328 2331 2335 2337 2338 2336 2332 2325 2317 2309 2300 2294 2250 2177 2148 2147 2140 2120 2105 2094 2086 2078 2071 2066 2063 2059 2051 2042 2035 2029 2026 2023 2020 2017 2016
2265 2279 2306 2311 2318 2318 2318 2319 2322 2329 2333 2331 2334 2342 2346 2347 2347 2354 2363 2375 2384 2392 2400 2410 2418 2427 2433 2440 2461 2483 2489 2490 2492 2501 2514 2537 2553 2561 2566 2573 2584 2593 2595 2600 2608 2613 2613 2619 2631 2642 2646 2657 2658 2654 2624 2597 2549 2523 2510 2494 2475 2461 2447 2433 2422 2409 2394 2381 2369 2360 2353 2346 2340 2333 2328 2329 2332 2335 2339 2343 2346 2350 2352 2352 2353 2353 2355 2360 2364 2365 2362 2360 2359 2361 2363 2367 2369 2371 2374 2378 2383 2386 2387 2388 2390 2392 2396 2401 2406 2410 2412 2410 2407 2409 2413 2422 2434 2442 2444 2444 2440 2431 2424 2415 2407 2400 2395 2392 2389 2387 2384 2378 2366 2353 2343 2335 2331 2329 2334 2338 2340 2342 2341 2341 2340 2337 2331 2320 2309 2292 2243 2183 2149 2147 2141 2125 2110 2100 2090 2079 2071 2067 2063 2057 2049 2039 2031 2026 2023 2021 2019 2016 2012
2272 2290 2313 2320 2324 2327 2328 2331 2336 2343 2348 2342 2340 2348 2349 2349 2349 2351 2358 2369 2379 2387 2397 2406 2413 2418 2423 2428 2450 2483 2487 2487 2492 2498 2510 2528 2538 2547 2558 2562 2569 2578 2583 2584 2589 2596 2608 2614 2620 2637 2651 2649 2658 2649 2631 2590 2558 2531 2511 2495 2464 2457 2447 2435 2422 2408 2391 2376 2371 2367 2360 2354 2345 2338 2337 2339 2342 2344 2347 2349 2352 2354 2356 2356 2356 2359 2363 2369 2373 2371 2367 2365 2363 2364 2369 2375 2375 2376 2379 2383 2388 2391 2393 2395 2396 2397 2401 2405 2408 2409 2411 2413 2415 2417 2425 2433 2441 2445 2446 2445 2440 2433 2425 2418 2408 2398 2392 2390 2388 2386 2383 2373 2364 2360 2357 2350 2344 2344 2344 2345 2346 2347 2350 2353 2352 2349 2336 2323 2304 2282 2250 2214 2174 2148 2143 2135 2117 2101 2088 2077 2067 2063 2060 2056 2048 2040 2033 2028 2025 2023 2021 2017 2013
2285 2297 2314 2322 2330 2337 2342 2344 2347 2346 2348 2350 2348 2347 2345 2345 2347 2351 2359 2370 2378 2384 2393 2401 2406 2412 2419 2425 2448 2472 2478 2484 2490 2504 2514 2523 2531 2539 2551 2559 2566 2571 2577 2579 2587 2599 2608 2616 2626 2637 2647 2648 2649 2641 2621 2588 2558 2532 2513 2493 2464 2454 2444 2431 2418 2404 2392 2385 2376 2369 2364 2357 2351 2345 2343 2345 2348 2352 2356 2357 2360 2363 2363 2364 2367 2370 2373 2376 2378 2378 2375 2372 2373 2376 2377 2381 2385 2386 2388 2391 2395 2398 2400 2399 2401 2403 2405 2408 2409 2412 2415 2419 2420 2424 2430 2437 2442 2445 2447 2446 2440 2433 2426 2419 2411 2404 2397 2393 2393 2392 2385 2377 2370 2367 2365 2363 2359 2357 2356 2356 2357 2359 2363 2369 2372 2367 2360 2349 2326 2292 2255 2217 2182 2158 2149 2139 2120 2102 2090 2077 2068 2062 2058 2053 2045 2038 2033 2031 2029 2024 2019 2014 2009
2287 2297 2313 2326 2335 2350 2356 2356 2355 2353 2351 2354 2358 2358 2355 2355 2356 2357 2366 2373 2379 2383 2388 2395 2401 2406 2416 2426 2438 2457 2476 2489 2502 2515 2524 2528 2536 2547 2551 2554 2562 2570 2573 2576 2581 2588 2603 2616 2624 2632 2643 2650 2640 2629 2611 2589 2563 2533 2508 2490 2489 2464 2449 2435 2417 2405 2398 2390 2380 2374 2369 2363 2359 2355 2352 2355 2359 2362 2365 2368 2371 2372 2371 2371 2372 2375 2378 2380 2383 2382 2381 2380 2382 2385 2388 2390 2392 2394 2395 2396 2398 2400 2402 2403 2405 2407 2408 2411 2413 2419 2424 2426 2425 2428 2434 2437 2442 2445 2443 2440 2435 2430 2426 2422 2417 2413 2403 2395 2394 2392 2388 2384 2381 2379 2378 2376 2373 2368 2365 2367 2370 2376 2385 2389 2391 2387 2380 2375 2369 2303 2236 2202 2174 2167 2155 2141 2127 2110 2093 2077 2067 2061 2057 2053 2048 2042 2037 2032 2027 2021 2016 2011 2006
2289 2298 2308 2321 2340 2354 2360 2363 2366 2365 2364 2369 2373 2374 2375 2374 2371 2371 2373 2377 2380 2382 2385 2392 2396 2402 2411 2423 2434 2453 2476 2493 2504 2516 2526 2533 2545 2552 2556 2560 2566 2573 2577 2579 2586 2598 2612 2624 2629 2633 2637 2639 2641 2634 2612 2585 2556 2532 2517 2502 2489 2473 2457 2442 2428 2414 2402 2391 2384 2378 2373 2370 2367 2364 2364 2366 2369 2371 2375 2379 2382 2382 2380 2379 2379 2380 2384 2384 2386 2386 2385 2385 2387 2391 2396 2397 2397 2397 2397 2396 2397 2401 2404 2406 2407 2409 2411 2415 2420 2426 2428 2428 2429 2432 2435 2438 2441 2442 2441 2437 2433 2430 2426 2422 2418 2410 2403 2396 2392 2392 2392 2393 2395 2398 2400 2403 2405 2407 2426 2452 2432 2404 2400 2397 2397 2395 2385 2372 2352 2313 2254 2190 2174 2166 2152 2136 2119 2103 2087 2077 2068 2060 2055 2051 2048 2045 2039 2032 2025 2020 2015 2008 2004
2301 2303 2313 2330 2343 2353 2363 2370 2375 2379 2381 2385 2388 2389 2388 2387 2383 2381 2381 2381 2380 2381 2387 2393 2397 2399 2407 2423 2436 2445 2466 2482 2493 2511 2525 2535 2547 2554 2559 2565 2571 2574 2578 2585 2592 2609 2626 2632 2637 2639 2643 2650 2651 2636 2614 2582 2562 2532 2500 2492 2483 2471 2459 2446 2431 2416 2405 2399 2392 2385 2381 2376 2373 2372 2374 2376 2377 2378 2380 2384 2387 2389 2389 2387 2387 2389 2390 2391 2391 2391 2391 2392 2395 2400 2405 2405 2403 2403 2402 2400 2400 2406 2411 2411 2410 2410 2412 2417 2423 2426 2428 2430 2431 2434 2437 2439 2441 2441 2440 2437 2434 2430 2426 2423 2418 2410 2401 2397 2396 2398 2403 2409 2415 2417 2421 2427 2435 2456 2469 2459 2439 2417 2411 2406 2402 2394 2380 2363 2349 2337 2275 2202 2176 2164 2142 2123 2108 2094 2084 2074 2066 2057 2050 2046 2045 2043 2038 2029 2021 2015 2010 2004 1999
2304 2310 2318 2329 2342 2355 2366 2378 2386 2391 2395 2405 2412 2410 2410 2409 2405 2398 2394 2386 2382 2381 2388 2398 2401 2401 2411 2421 2436 2462 2478 2489 2499 2510 2527 2540 2550 2556 2559 2564 2570 2576 2581 2587 2598 2615 2631 2641 2647 2653 2661 2667 2646 2621 2596 2565 2545 2523 2502 2492 2483 2470 2457 2442 2426 2416 2411 2406 2400 2395 2390 2387 2386 2383 2382 2383 2384 2386 2387 2390 2392 2395 2397 2396 2395 2397 2396 2395 2395 2396 2397 2399 2403 2408 2411 2411 2411 2411 2408 2408 2412 2416 2418 2417 2415 2414 2415 2419 2421 2423 2425 2430 2434 2436 2438 2438 2439 2438 2436 2434 2431 2428 2424 2421 2416 2411 2407 2406 2410 2413 2417 2423 2427 2431 2433 2449 2482 2505 2517 2492 2447 2427 2419 2413 2407 2391 2374 2357 2339 2324 2301 2225 2188 2156 2132 2119 2106 2093 2082 2071 2063 2056 2050 2047 2045 2043 2036 2026 2019 2012 2006 2000 1996
2306 2312 2318 2326 2338 2353 2370 2380 2386 2394 2403 2413 2422 2426 2427 2423 2421 2419 2413 2404 2397 2396 2403 2410 2414 2416 2413 2423 2451 2471 2486 2496 2507 2521 2530 2540 2549 2557 2563 2570 2574 2578 2586 2595 2606 2618 2633 2648 2657 2666 2674 2683 2687 2607 2578 2547 2523 2501 2502 2492 2482 2467 2454 2443 2434 2425 2419 2414 2408 2404 2402 2400 2395 2393 2391 2391 2392 2393 2394 2398 2402 2405 2406 2405 2405 2406 2406 2402 2401 2403 2403 2405 2408 2413 2417 2421 2421 2418 2418 2417 2417 2420 2421 2419 2417 2417 2417 2419 2420 2422 2426 2430 2433 2434 2434 2435 2435 2434 2432 2430 2428 2426 2423 2419 2415 2413 2413 2418 2421 2425 2428 2433 2441 2446 2478 2523 2535 2536 2536 2534 2482 2435 2427 2417 2407 2391 2370 2350 2330 2298 2251 2211 2175 2154 2139 2124 2109 2095 2080 2072 2066 2061 2055 2052 2049 2043 2036 2027 2018 2010 2004 2000 1996
2310 2315 2319 2326 2338 2354 2367 2376 2385 2392 2400 2412 2423 2426 2431 2432 2435 2438 2440 2431 2426 2430 2437 2440 2440 2438 2437 2452 2462 2473 2487 2502 2516 2525 2531 2537 2546 2557 2567 2573 2579 2586 2595 2605 2616 2628 2639 2650 2662 2673 2686 2700 2628 2590 2558 2523 2512 2502 2493 2489 2478 2464 2452 2445 2438 2430 2424 2420 2417 2416 2416 2418 2417 2416 2411 2405 2403 2404 2406 2409 2411 2413 2413 2412 2411 2410 2409 2407 2406 2407 2409 2411 2415 2420 2426 2428 2429 2429 2428 2428 2427 2427 2426 2423 2420 2417 2417 2418 2420 2423 2427 2431 2432 2431 2431 2432 2433 2433 2431 2429 2427 2425 2420 2418 2417 2418 2422 2427 2433 2438 2445 2453 2461 2486 2523 2545 2549 2551 2535 2482 2446 2439 2431 2421 2407 2390 2367 2343 2318 2291 2250 2205 2180 2158 2138 2123 2109 2096 2086 2077 2072 2066 2060 2055 2050 2043 2038 2031 2022 2018 2013 2009 2003
2318 2322 2327 2332 2341 2353 2364 2374 2384 2394 2402 2411 2419 2424 2430 2438 2446 2453 2453 2451 2452 2452 2453 2455 2456 2453 2458 2466 2471 2480 2490 2497 2510 2521 2526 2531 2541 2553 2564 2571 2578 2588 2599 2612 2625 2635 2645 2660 2675 2697 2641 2627 2604 2571 2524 2514 2512 2491 2483 2483 2472 2461 2451 2442 2434 2430 2428 2428 2425 2426 2428 2430 2433 2432 2428 2422 2417 2415 2415 2415 2415 2417 2417 2415 2413 2413 2413 2412 2413 2415 2415 2417 2423 2428 2433 2436 2437 2436 2435 2433 2433 2431 2428 2424 2419 2417 2418 2419 2421 2425 2428 2431 2432 2432 2432 2432 2433 2432 2431 2429 2427 2424 2421 2419 2420 2424 2429 2435 2443 2452 2460 2473 2496 2518 2537 2550 2555 2542 2505 2469 2452 2441 2432 2422 2408 2382 2361 2340 2313 2282 2246 2212 2187 2169 2149 2129 2114 2104 2093 2084 2076 2071 2064 2056 2050 2045 2039 2034 2030 2026 2022 2017 2009
2316 2323 2329 2333 2338 2346 2356 2366 2378 2387 2396 2405 2413 2419 2425 2436 2446 2448 2449 2456 2460 2462 2460 2455 2453 2456 2466 2477 2486 2489 2491 2497 2502 2514 2524 2530 2541 2554 2562 2568 2578 2591 2603 2615 2626 2638 2645 2650 2645 2641 2624 2604 2589 2544 2527 2519 2500 2490 2480 2469 2461 2453 2447 2440 2434 2431 2432 2433 2433 2433 2436 2439 2441 2440 2438 2433 2426 2424 2423 2424 2426 2424 2422 2419 2419 2418 2418 2419 2420 2421 2422 2425 2429 2433 2435 2436 2438 2437 2436 2434 2431 2428 2424 2420 2419 2419 2422 2424 2425 2426 2428 2430 2431 2432 2432 2433 2433 2433 2431 2429 2427 2424 2423 2422 2424 2430 2437 2447 2459 2468 2480 2501 2521 2536 2547 2554 2559 2558 2520 2474 2455 2442 2431 2418 2398 2376 2350 2323 2297 2270 2237 2213 2195 2174 2151 2132 2119 2109 2098 2087 2078 2071 2064 2056 2050 2045 2042 2036 2031 2027 2020 2013 2007
2313 2321 2327 2331 2336 2343 2352 2362 2371 2379 2384 2392 2401 2408 2416 2426 2435 2440 2452 2462 2467 2466 2460 2457 2457 2462 2476 2488 2491 2494 2499 2503 2509 2514 2521 2528 2541 2556 2564 2570 2579 2591 2604 2615 2620 2639 2646 2657 2642 2641 2611 2594 2573 2548 2518 2510 2493 2487 2469 2462 2455 2452 2447 2440 2437 2437 2438 2440 2440 2441 2445 2448 2450 2449 2443 2438 2436 2434 2434 2433 2430 2428 2425 2423 2420 2422 2423 2423 2425 2424 2424 2426 2430 2431 2432 2433 2433 2433 2433 2431 2430 2427 2426 2424 2423 2425 2427 2427 2428 2427 2426 2427 2429 2430 2431 2431 2432 2432 2431 2429 2427 2426 2425 2427 2432 2439 2449 2459 2469 2480 2491 2507 2527 2539 2548 2554 2546 2518 2494 2481 2465 2444 2423 2404 2386 2362 2336 2310 2285 2264 2237 2215 2203 2185 2161 2139 2119 2105 2097 2087 2080 2071 2062 2054 2048 2044 2040 2036 2030 2021 2013 2007 2002
2308 2317 2328 2333 2338 2343 2351 2360 2367 2373 2378 2385 2393 2400 2407 2415 2424 2437 2454 2468 2470 2465 2466 2470 2479 2484 2487 2490 2491 2494 2497 2505 2512 2518 2522 2530 2546 2557 2567 2575 2585 2597 2593 2609 2624 2637 2650 2652 2660 2642 2608 2596 2569 2548 2533 2510 2507 2489 2468 2463 2459 2455 2450 2446 2445 2447 2448 2449 2449 2451 2454 2457 2458 2451 2445 2441 2439 2441 2440 2439 2434 2430 2429 2426 2426 2427 2428 2430 2430 2429 2428 2427 2429 2431 2432 2432 2431 2431 2431 2431 2431 2431 2430 2429 2429 2430 2431 2431 2430 2428 2426 2426 2426 2428 2428 2429 2429 2428 2429 2428 2429 2431 2434 2437 2442 2448 2455 2465 2482 2496 2507 2519 2532 2542 2550 2552 2547 2531 2508 2485 2465 2444 2422 2404 2386 2359 2330 2299 2272 2253 2234 2215 2199 2182 2156 2128 2111 2105 2097 2088 2077 2068 2063 2057 2049 2044 2040 2035 2026 2017 2009 2002 1997
2306 2313 2323 2329 2335 2345 2352 2357 2364 2369 2374 2379 2387 2394 2401 2411 2420 2437 2456 2463 2463 2465 2469 2492 2503 2508 2506 2498 2496 2492 2495 2498 2508 2517 2524 2548 2566 2571 2579 2584 2591 2591 2596 2610 2622 2654 2680 2652 2656 2663 2645 2607 2574 2556 2544 2533 2521 2496 2487 2471 2466 2462 2458 2454 2453 2452 2453 2455 2457 2459 2461 2461 2459 2455 2450 2447 2445 2445 2445 2443 2440 2437 2433 2431 2432 2434 2435 2435 2435 2433 2431 2429 2429 2431 2432 2432 2431 2429 2431 2432 2432 2432 2432 2431 2432 2433 2433 2433 2432 2430 2428 2427 2427 2426 2427 2429 2429 2430 2432 2434 2436 2439 2443 2447 2451 2456 2465 2479 2491 2501 2512 2522 2536 2549 2552 2551 2542 2528 2508 2484 2454 2430 2412 2395 2376 2350 2318 2295 2275 2255 2237 2224 2210 2176 2145 2126 2111 2104 2097 2087 2077 2069 2063 2057 2051 2046 2039 2031 2024 2016 2007 1999 1996
2304 2313 2322 2330 2337 2344 2351 2356 2363 2369 2372 2377 2384 2390 2399 2410 2420 2432 2447 2454 2457 2462 2470 2486 2506 2509 2509 2507 2502 2502 2500 2503 2507 2514 2528 2551 2573 2587 2593 2595 2601 2607 2612 2619 2631 2654 2682 2689 2679 2661 2656 2649 2606 2577 2555 2535 2532 2518 2499 2482 2476 2469 2462 2458 2456 2455 2456 2458 2460 2462 2463 2464 2463 2461 2456 2452 2451 2449 2447 2447 2446 2442 2436 2434 2434 2438 2441 2439 2437 2436 2433 2429 2427 2430 2432 2431 2429 2429 2430 2432 2433 2433 2434 2434 2435 2435 2435 2434 2432 2429 2428 2428 2428 2428 2430 2432 2434 2436 2441 2442 2443 2444 2449 2453 2457 2465 2475 2483 2492 2499 2506 2527 2546 2552 2555 2551 2539 2519 2490 2460 2436 2416 2395 2375 2356 2333 2314 2297 2280 2262 2241 2223 2204 2179 2151 2129 2118 2108 2099 2091 2081 2071 2063 2057 2051 2044 2036 2029 2023 2017 2012 2006 2001
2305 2312 2319 2327 2335 2341 2345 2351 2358 2365 2370 2376 2380 2384 2390 2402 2415 2425 2429 2438 2447 2454 2466 2478 2486 2495 2503 2508 2517 2520 2519 2518 2516 2515 2523 2541 2579 2601 2609 2607 2613 2624 2627 2628 2631 2642 2661 2683 2686 2673 2668 2661 2640 2604 2577 2559 2548 2529 2514 2500 2492 2485 2476 2468 2461 2460 2460 2462 2464 2464 2467 2469 2468 2464 2458 2455 2453 2452 2452 2453 2451 2448 2444 2440 2440 2442 2444 2443 2441 2439 2436 2434 2432 2432 2432 2432 2431 2431 2433 2434 2435 2437 2438 2439 2440 2440 2440 2436 2432 2429 2428 2428 2429 2432 2436 2440 2445 2447 2448 2448 2449 2450 2454 2459 2466 2472 2477 2485 2494 2508 2527 2542 2550 2555 2554 2546 2531 2505 2476 2444 2418 2398 2381 2367 2343 2316 2300 2289 2274 2254 2236 2223 2205 2180 2153 2130 2118 2107 2100 2093 2081 2070 2063 2055 2050 2046 2038 2030 2024 2018 2015 2012 2009
2305 2308 2314 2323 2331 2337 2341 2346 2353 2361 2367 2373 2376 2377 2383 2395 2407 2414 2418 2425 2435 2446 2456 2467 2477 2490 2496 2512 2515 2515 2514 2516 2513 2517 2522 2536 2559 2591 2606 2601 2617 2633 2634 2632 2632 2630 2650 2676 2682 2689 2689 2687 2653 2638 2599 2576 2550 2537 2516 2510 2500 2492 2483 2474 2470 2468 2467 2467 2467 2471 2473 2474 2471 2466 2461 2458 2457 2458 2458 2457 2456 2453 2449 2446 2446 2445 2444 2442 2440 2438 2438 2436 2436 2435 2434 2434 2436 2439 2441 2442 2440 2440 2442 2443 2443 2442 2441 2438 2434 2432 2432 2433 2435 2440 2445 2450 2453 2456 2458 2458 2459 2459 2460 2463 2468 2474 2482 2494 2507 2521 2535 2545 2552 2555 2547 2533 2512 2488 2458 2428 2406 2391 2374 2349 2320 2301 2289 2273 2256 2242 2228 2211 2192 2163 2139 2128 2118 2107 2097 2088 2079 2070 2063 2056 2050 2046 2039 2032 2024 2018 2015 2012 2009
2300 2307 2314 2322 2330 2336 2340 2343 2350 2358 2365 2368 2371 2375 2380 2390 2400 2406 2410 2416 2426 2433 2442 2447 2462 2473 2482 2496 2497 2500 2499 2498 2500 2507 2517 2522 2529 2557 2589 2605 2628 2635 2627 2634 2647 2654 2666 2673 2681 2682 2683 2683 2678 2644 2615 2573 2549 2541 2527 2510 2499 2491 2483 2475 2472 2471 2470 2470 2470 2473 2475 2474 2472 2469 2465 2463 2464 2463 2461 2460 2459 2457 2454 2453 2451 2450 2449 2447 2443 2441 2442 2443 2442 2440 2439 2441 2442 2444 2446 2445 2444 2444 2445 2446 2444 2443 2441 2439 2440 2442 2443 2445 2446 2448 2453 2457 2461 2463 2465 2466 2464 2464 2464 2467 2473 2484 2498 2510 2522 2532 2541 2548 2550 2543 2527 2506 2488 2470 2439 2408 2387 2370 2350 2325 2308 2294 2280 2268 2254 2236 2214 2194 2176 2160 2146 2131 2116 2105 2095 2086 2077 2068 2061 2055 2049 2042 2037 2032 2027 2021 2015 2011 2007
2298 2304 2314 2322 2328 2333 2337 2343 2350 2357 2364 2369 2373 2375 2380 2388 2396 2400 2405 2410 2419 2426 2428 2432 2440 2449 2457 2468 2477 2481 2480 2480 2485 2493 2500 2507 2523 2552 2588 2603 2604 2615 2618 2623 2632 2644 2672 2679 2686 2685 2688 2681 2683 2665 2650 2597 2571 2547 2527 2501 2493 2488 2485 2479 2474 2474 2475 2477 2478 2478 2477 2476 2474 2471 2471 2469 2468 2465 2462 2461 2463 2463 2462 2461 2459 2457 2456 2453 2451 2448 2447 2445 2445 2443 2442 2445 2448 2448 2447 2446 2446 2446 2446 2447 2446 2443 2442 2443 2444 2445 2447 2450 2452 2455 2458 2463 2466 2470 2471 2472 2471 2470 2472 2476 2485 2496 2504 2513 2524 2535 2542 2548 2547 2533 2510 2489 2471 2445 2419 2396 2373 2351 2332 2316 2301 2285 2270 2257 2242 2224 2203 2184 2170 2158 2145 2132 2119 2105 2093 2085 2077 2068 2060 2053 2045 2039 2035 2031 2028 2022 2017 2010 2005
2294 2300 2308 2317 2322 2328 2338 2346 2351 2357 2364 2370 2372 2372 2375 2382 2390 2394 2398 2405 2413 2418 2421 2424 2430 2432 2433 2441 2453 2460 2460 2461 2470 2477 2482 2494 2524 2559 2572 2588 2588 2591 2582 2596 2606 2639 2644 2674 2688 2691 2685 2685 2674 2667 2647 2598 2569 2551 2530 2511 2491 2488 2485 2481 2480 2481 2484 2485 2486 2485 2484 2480 2477 2476 2474 2475 2471 2466 2463 2463 2464 2466 2465 2465 2464 2463 2461 2457 2454 2451 2448 2446 2444 2444 2446 2448 2451 2451 2450 2449 2448 2448 2447 2446 2445 2443 2443 2445 2447 2450 2452 2457 2461 2463 2465 2467 2471 2473 2475 2476 2477 2478 2480 2485 2492 2499 2506 2514 2522 2532 2541 2547 2538 2519 2494 2475 2462 2437 2408 2387 2368 2350 2332 2312 2292 2279 2266 2250 2232 2210 2192 2178 2164 2151 2138 2126 2113 2102 2093 2086 2078 2069 2059 2049 2042 2036 2032 2030 2026 2022 2017 2011 2008
2300 2305 2311 2318 2325 2333 2342 2349 2353 2356 2362 2369 2372 2374 2377 2382 2389 2393 2397 2401 2409 2415 2417 2419 2424 2424 2426 2430 2438 2440 2443 2446 2456 2464 2469 2474 2504 2513 2535 2553 2558 2562 2574 2583 2594 2602 2635 2649 2662 2672 2670 2668 2667 2654 2645 2599 2572 2556 2535 2515 2490 2485 2485 2483 2483 2485 2488 2489 2491 2494 2492 2489 2485 2481 2479 2478 2476 2472 2469 2470 2469 2469 2468 2467 2467 2467 2465 2462 2460 2457 2453 2450 2450 2450 2451 2454 2454 2454 2453 2453 2452 2451 2450 2450 2449 2449 2450 2452 2453 2456 2461 2465 2467 2469 2472 2475 2476 2476 2477 2479 2482 2484 2486 2490 2495 2502 2509 2515 2522 2529 2536 2536 2527 2505 2482 2463 2442 2419 2401 2381 2361 2342 2328 2312 2293 2275 2257 2238 2219 2198 2179 2170 2161 2149 2137 2124 2111 2102 2095 2086 2077 2066 2054 2047 2041 2037 2033 2029 2026 2022 2017 2013 2010
2307 2312 2319 2326 2333 2339 2347 2350 2351 2355 2363 2369 2374 2379 2385 2392 2397 2400 2402 2404 2410 2412 2412 2417 2421 2426 2428 2431 2433 2438 2439 2442 2448 2453 2460 2466 2475 2490 2505 2522 2525 2547 2553 2566 2588 2604 2617 2634 2645 2649 2651 2651 2648 2647 2637 2600 2576 2558 2533 2511 2488 2484 2485 2485 2486 2489 2493 2496 2500 2503 2504 2497 2493 2487 2483 2481 2480 2479 2480 2479 2478 2474 2472 2471 2470 2469 2467 2465 2463 2463 2461 2459 2458 2458 2458 2457 2455 2455 2455 2455 2454 2454 2454 2455 2455 2457 2458 2460 2463 2466 2470 2473 2472 2470 2474 2480 2482 2482 2483 2485 2487 2490 2492 2494 2500 2507 2513 2519 2524 2529 2533 2531 2520 2502 2478 2453 2429 2414 2397 2377 2361 2350 2335 2312 2290 2272 2258 2242 2215 2188 2176 2169 2157 2145 2135 2122 2109 2100 2092 2083 2073 2063 2055 2049 2045 2040 2035 2030 2026 2021 2016 2013 2011
2315 2319 2325 2331 2339 2345 2349 2352 2355 2360 2367 2373 2378 2384 2388 2394 2400 2402 2404 2409 2413 2415 2417 2421 2425 2428 2433 2436 2441 2444 2447 2446 2447 2450 2450 2459 2471 2481 2492 2505 2514 2520 2547 2567 2592 2598 2610 2628 2637 2633 2639 2632 2628 2633 2609 2589 2565 2553 2534 2504 2499 2490 2492 2492 2496 2499 2500 2502 2507 2509 2508 2504 2499 2494 2490 2487 2483 2482 2483 2485 2481 2477 2476 2475 2474 2473 2472 2469 2469 2467 2465 2463 2461 2459 2458 2458 2459 2460 2462 2462 2461 2460 2459 2459 2461 2464 2468 2469 2471 2474 2478 2478 2478 2478 2481 2487 2490 2489 2488 2489 2493 2497 2499 2502 2507 2514 2521 2525 2528 2532 2534 2529 2508 2488 2467 2445 2429 2411 2394 2376 2358 2339 2321 2305 2286 2269 2251 2222 2200 2185 2171 2157 2147 2139 2129 2117 2107 2098 2090 2081 2072 2063 2057 2052 2047 2043 2037 2032 2027 2022 2018 2015 2014
2321 2323 2327 2334 2342 2347 2351 2356 2363 2369 2372 2376 2382 2387 2388 2391 2396 2400 2408 2415 2419 2423 2423 2427 2428 2429 2433 2437 2442 2447 2447 2448 2448 2449 2452 2460 2468 2474 2487 2499 2508 2514 2539 2561 2577 2597 2616 2626 2632 2628 2629 2624 2612 2598 2591 2576 2563 2547 2533 2522 2501 2494 2497 2498 2501 2503 2507 2510 2511 2510 2509 2506 2504 2501 2499 2494 2491 2488 2488 2487 2485 2482 2479 2478 2478 2477 2477 2477 2475 2472 2467 2463 2461 2461 2462 2463 2464 2465 2466 2467 2468 2466 2464 2466 2471 2474 2476 2477 2478 2481 2484 2485 2485 2487 2491 2495 2499 2497 2494 2495 2497 2501 2507 2511 2515 2522 2528 2532 2535 2538 2537 2529 2512 2485 2461 2442 2420 2403 2390 2372 2345 2324 2314 2300 2278 2255 2229 2207 2190 2174 2160 2148 2139 2132 2125 2114 2102 2095 2088 2082 2073 2065 2059 2054 2050 2045 2039 2032 2028 2025 2022 2019 2018
2330 2333 2335 2341 2347 2352 2356 2364 2372 2376 2378 2379 2383 2385 2387 2394 2399 2405 2412 2419 2422 2422 2424 2428 2431 2431 2434 2439 2443 2444 2445 2446 2449 2449 2454 2462 2469 2476 2489 2496 2505 2505 2518 2557 2570 2592 2607 2619 2625 2634 2631 2620 2600 2594 2586 2580 2577 2558 2535 2527 2513 2499 2500 2502 2504 2507 2511 2512 2512 2511 2509 2508 2506 2505 2505 2503 2499 2498 2495 2494 2493 2490 2486 2483 2483 2483 2485 2488 2484 2477 2472 2468 2468 2467 2467 2468 2468 2468 2469 2470 2470 2469 2472 2476 2480 2484 2485 2484 2486 2489 2491 2492 2494 2495 2497 2501 2500 2500 2499 2499 2503 2507 2511 2516 2524 2531 2536 2541 2544 2547 2546 2536 2518 2481 2451 2428 2407 2393 2377 2355 2336 2320 2303 2283 2262 2241 2220 2200 2182 2167 2154 2142 2132 2124 2116 2107 2100 2094 2088 2083 2077 2070 2062 2059 2056 2051 2044 2035 2030 2027 2024 2022 2021
2344 2345 2345 2348 2355 2360 2365 2371 2378 2383 2385 2388 2388 2389 2393 2396 2401 2406 2412 2418 2421 2422 2424 2429 2434 2435 2438 2441 2444 2446 2447 2448 2451 2453 2456 2465 2472 2483 2496 2501 2507 2516 2539 2574 2604 2581 2592 2606 2620 2627 2627 2622 2604 2599 2589 2574 2573 2556 2544 2534 2525 2509 2514 2514 2511 2513 2515 2516 2516 2514 2513 2511 2510 2509 2509 2506 2504 2502 2500 2498 2496 2495 2495 2493 2490 2490 2491 2489 2486 2482 2479 2477 2473 2471 2470 2469 2471 2472 2473 2474 2476 2481 2486 2490 2492 2492 2493 2493 2494 2495 2497 2498 2499 2499 2501 2501 2500 2498 2499 2502 2506 2510 2518 2526 2538 2548 2552 2555 2555 2554 2553 2541 2508 2476 2443 2412 2394 2382 2366 2341 2317 2304 2291 2267 2244 2230 2211 2191 2176 2166 2154 2139 2127 2120 2113 2107 2102 2097 2093 2088 2082 2076 2070 2066 2063 2057 2049 2043 2038 2035 2032 2031 2030
2345 2342 2345 2351 2356 2362 2367 2372 2379 2384 2389 2392 2394 2394 2394 2397 2401 2406 2412 2418 2422 2424 2428 2433 2434 2435 2436 2440 2444 2446 2446 2447 2447 2453 2461 2468 2475 2487 2494 2503 2516 2530 2537 2558 2579 2592 2591 2600 2618 2627 2635 2639 2620 2599 2604 2582 2572 2563 2550 2540 2533 2525 2526 2525 2521 2522 2523 2522 2521 2520 2518 2516 2515 2516 2516 2510 2508 2507 2504 2502 2500 2500 2499 2498 2494 2492 2491 2488 2485 2483 2484 2482 2479 2477 2477 2478 2480 2482 2483 2483 2488 2494 2499 2502 2502 2502 2501 2500 2500 2501 2504 2504 2505 2506 2507 2507 2505 2506 2508 2513 2517 2523 2531 2547 2559 2567 2572 2569 2565 2565 2557 2537 2510 2477 2435 2396 2388 2379 2355 2329 2309 2289 2268 2250 2236 2219 2201 2188 2178 2169 2154 2137 2127 2120 2114 2109 2106 2102 2099 2096 2090 2081 2075 2071 2066 2059 2050 2045 2044 2043 2043 2040 2037
2346 2348 2352 2355 2359 2363 2367 2372 2375 2377 2383 2389 2393 2394 2396 2399 2402 2406 2412 2419 2424 2429 2434 2436 2436 2435 2437 2438 2442 2443 2444 2444 2447 2452 2459 2464 2472 2481 2490 2502 2515 2525 2532 2548 2566 2570 2572 2593 2624 2630 2648 2652 2646 2626 2615 2605 2578 2569 2556 2554 2539 2535 2535 2535 2533 2529 2528 2526 2524 2522 2521 2520 2521 2522 2521 2518 2515 2513 2511 2508 2506 2505 2503 2499 2497 2495 2493 2490 2488 2487 2487 2486 2482 2480 2480 2484 2488 2491 2496 2500 2501 2504 2507 2509 2510 2511 2510 2508 2506 2507 2507 2508 2510 2512 2515 2515 2517 2521 2527 2534 2544 2551 2560 2572 2583 2587 2587 2582 2576 2565 2551 2533 2513 2483 2450 2419 2396 2386 2361 2322 2292 2272 2259 2246 2228 2210 2198 2188 2177 2165 2153 2141 2129 2120 2116 2112 2108 2105 2102 2097 2091 2084 2078 2073 2068 2062 2055 2053 2051 2051 2049 2048 2044
2354 2358 2361 2361 2361 2364 2369 2374 2376 2378 2381 2385 2390 2393 2396 2400 2403 2407 2411 2416 2422 2429 2433 2436 2438 2437 2437 2439 2441 2443 2444 2446 2449 2451 2455 2459 2467 2478 2488 2499 2509 2515 2526 2545 2560 2568 2573 2590 2625 2656 2681 2654 2660 2650 2633 2610 2591 2575 2566 2557 2550 2544 2540 2538 2535 2532 2531 2528 2526 2524 2522 2524 2527 2530 2527 2522 2518 2515 2514 2513 2510 2506 2502 2498 2495 2495 2494 2494 2494 2495 2496 2495 2492 2491 2492 2495 2498 2502 2506 2507 2509 2512 2514 2517 2519 2519 2518 2517 2516 2516 2516 2516 2519 2525 2527 2527 2529 2532 2539 2550 2560 2567 2575 2583 2590 2596 2595 2591 2581 2569 2554 2537 2514 2485 2446 2420 2404 2385 2358 2319 2282 2268 2256 2239 2221 2207 2193 2181 2171 2161 2149 2138 2129 2122 2116 2111 2108 2104 2100 2096 2091 2086 2081 2077 2071 2068 2066 2066 2066 2062 2056 2052 2049
2363 2365 2366 2367 2366 2366 2373 2379 2383 2385 2384 2385 2388 2391 2393 2396 2401 2406 2412 2415 2419 2426 2431 2436 2440 2439 2439 2440 2442 2443 2444 2446 2447 2450 2453 2457 2463 2473 2486 2496 2500 2508 2518 2537 2548 2562 2575 2585 2601 2636 2657 2667 2660 2655 2647 2632 2600 2588 2573 2562 2553 2549 2546 2540 2535 2533 2532 2530 2528 2527 2528 2531 2537 2539 2536 2531 2526 2523 2520 2518 2514 2509 2502 2497 2495 2494 2493 2494 2496 2497 2498 2500 2501 2503 2505 2507 2509 2512 2514 2515 2515 2516 2518 2521 2523 2526 2526 2526 2525 2527 2527 2530 2534 2533 2535 2536 2539 2543 2551 2569 2579 2585 2593 2601 2604 2600 2594 2584 2574 2562 2543 2522 2497 2472 2449 2425 2406 2388 2352 2311 2282 2263 2250 2237 2222 2207 2192 2180 2169 2159 2151 2142 2134 2126 2118 2112 2107 2103 2099 2095 2092 2087 2082 2080 2080 2077 2074 2072 2068 2064 2060 2056 2052
2372 2375 2378 2377 2375 2376 2379 2385 2387 2387 2386 2385 2387 2389 2391 2395 2398 2403 2409 2412 2418 2424 2430 2435 2437 2437 2437 2438 2440 2441 2444 2446 2448 2452 2455 2456 2462 2470 2484 2493 2498 2505 2516 2528 2541 2555 2569 2580 2594 2609 2640 2655 2662 2658 2656 2651 2637 2607 2585 2573 2564 2555 2551 2545 2539 2533 2531 2530 2529 2530 2534 2540 2543 2544 2541 2536 2533 2530 2526 2523 2519 2514 2508 2504 2502 2500 2498 2496 2497 2502 2505 2507 2510 2511 2511 2513 2517 2519 2520 2520 2519 2519 2521 2525 2528 2532 2534 2535 2534 2536 2541 2544 2546 2545 2541 2542 2549 2566 2591 2607 2613 2618 2622 2611 2603 2591 2580 2566 2550 2536 2523 2507 2489 2471 2451 2431 2408 2385 2355 2313 2283 2264 2250 2235 2221 2207 2193 2179 2169 2160 2153 2146 2139 2131 2124 2116 2110 2106 2103 2100 2095 2092 2089 2088 2088 2088 2083 2076 2070 2065 2063 2059 2054
2376 2381 2386 2387 2388 2390 2390 2390 2389 2389 2389 2388 2387 2390 2393 2395 2397 2401 2405 2409 2415 2423 2428 2431 2434 2436 2437 2437 2438 2439 2442 2446 2448 2451 2454 2453 2460 2471 2481 2486 2491 2503 2513 2528 2539 2554 2563 2570 2588 2608 2629 2646 2653 2652 2658 2658 2648 2623 2601 2587 2579 2577 2565 2555 2545 2537 2532 2530 2530 2532 2537 2541 2544 2543 2540 2540 2537 2533 2529 2525 2521 2519 2516 2512 2510 2508 2506 2505 2506 2508 2512 2517 2518 2515 2514 2517 2520 2522 2526 2530 2534 2534 2532 2533 2535 2538 2542 2543 2545 2546 2549 2554 2558 2558 2562 2564 2578 2598 2619 2636 2646 2650 2650 2631 2597 2580 2565 2553 2539 2522 2504 2489 2474 2458 2441 2419 2395 2361 2324 2299 2281 2265 2251 2238 2224 2207 2192 2180 2169 2160 2153 2146 2139 2134 2128 2123 2118 2115 2113 2108 2104 2100 2098 2097 2097 2094 2089 2084 2077 2073 2071 2068 2063
2377 2380 2385 2389 2390 2388 2388 2389 2391 2392 2393 2393 2392 2391 2393 2396 2398 2401 2404 2410 2415 2420 2425 2428 2432 2437 2442 2442 2440 2438 2438 2441 2446 2450 2450 2452 2461 2469 2472 2480 2484 2498 2507 2518 2536 2549 2555 2562 2581 2602 2617 2632 2642 2645 2653 2659 2658 2633 2614 2601 2589 2585 2574 2559 2549 2540 2534 2531 2532 2533 2538 2540 2542 2543 2541 2540 2539 2536 2532 2528 2525 2524 2523 2522 2519 2517 2516 2516 2515 2517 2522 2524 2524 2521 2519 2522 2525 2529 2534 2539 2543 2542 2541 2541 2541 2542 2546 2548 2550 2552 2554 2557 2562 2569 2579 2594 2609 2623 2637 2652 2662 2667 2656 2619 2582 2566 2552 2535 2523 2508 2490 2468 2451 2437 2419 2400 2383 2357 2325 2298 2279 2262 2244 2234 2224 2208 2192 2181 2171 2161 2152 2146 2140 2138 2134 2130 2126 2123 2120 2115 2109 2104 2104 2103 2099 2096 2093 2089 2082 2077 2075 2072 2068
2383 2384 2386 2388 2388 2386 2390 2394 2394 2396 2396 2394 2394 2395 2397 2399 2402 2405 2409 2413 2416 2418 2421 2425 2430 2437 2443 2445 2445 2441 2438 2441 2445 2449 2452 2454 2459 2466 2472 2480 2491 2498 2504 2515 2527 2544 2550 2556 2571 2590 2608 2625 2640 2645 2652 2661 2660 2647 2631 2618 2605 2588 2578 2557 2547 2540 2534 2532 2532 2534 2536 2539 2541 2542 2542 2541 2542 2541 2539 2536 2533 2533 2533 2531 2530 2528 2525 2524 2527 2531 2533 2536 2534 2532 2532 2533 2537 2541 2543 2545 2545 2545 2545 2546 2549 2551 2552 2553 2556 2559 2561 2567 2571 2579 2594 2608 2620 2630 2644 2667 2679 2678 2675 2603 2548 2534 2519 2506 2497 2489 2472 2452 2434 2422 2407 2392 2373 2351 2327 2302 2275 2250 2240 2234 2224 2210 2198 2186 2174 2164 2156 2151 2148 2145 2141 2135 2130 2128 2126 2119 2113 2111 2108 2104 2099 2096 2097 2095 2088 2083 2080 2075 2071
2394 2394 2392 2391 2392 2391 2392 2397 2403 2402 2398 2397 2397 2397 2399 2400 2401 2406 2409 2412 2415 2416 2419 2422 2429 2436 2440 2442 2443 2442 2444 2445 2447 2449 2452 2455 2459 2465 2473 2485 2493 2500 2509 2522 2535 2545 2548 2554 2561 2569 2580 2628 2644 2645 2642 2648 2656 2660 2640 2624 2608 2590 2583 2571 2558 2546 2537 2533 2532 2532 2534 2536 2538 2540 2542 2543 2544 2544 2543 2541 2538 2539 2540 2539 2538 2537 2537 2536 2536 2539 2543 2542 2543 2544 2546 2548 2547 2547 2549 2551 2552 2550 2549 2550 2554 2558 2561 2564 2566 2568 2573 2575 2577 2588 2605 2624 2649 2669 2685 2695 2696 2693 2685 2634 2544 2500 2488 2477 2466 2459 2449 2437 2422 2410 2397 2377 2354 2338 2319 2294 2272 2260 2248 2236 2226 2215 2202 2193 2183 2174 2167 2161 2158 2156 2152 2146 2140 2133 2127 2122 2118 2115 2111 2105 2101 2101 2100 2099 2096 2092 2086 2083 2082
2406 2406 2401 2397 2392 2393 2396 2401 2406 2407 2406 2406 2406 2405 2401 2401 2405 2408 2412 2414 2417 2419 2423 2427 2433 2437 2438 2440 2442 2447 2450 2449 2449 2451 2451 2454 2461 2470 2475 2480 2491 2503 2513 2531 2541 2543 2545 2547 2552 2555 2555 2574 2638 2651 2647 2657 2672 2664 2654 2617 2610 2594 2591 2582 2565 2550 2543 2536 2532 2529 2529 2532 2535 2538 2541 2545 2546 2547 2546 2544 2544 2546 2547 2547 2547 2546 2545 2545 2547 2550 2552 2552 2552 2554 2557 2556 2555 2554 2554 2558 2561 2560 2559 2560 2562 2566 2569 2570 2574 2578 2584 2585 2593 2609 2630 2652 2670 2689 2696 2699 2661 2649 2586 2485 2477 2472 2461 2450 2444 2440 2429 2417 2408 2397 2383 2362 2334 2313 2292 2278 2272 2262 2251 2241 2231 2221 2208 2197 2192 2187 2180 2173 2167 2160 2157 2152 2143 2134 2128 2123 2120 2118 2116 2115 2112 2114 2114 2110 2104 2095 2092 2090 2092
2409 2420 2421 2419 2416 2412 2409 2410 2409 2409 2411 2414 2417 2415 2411 2409 2411 2415 2418 2424 2430 2433 2433 2434 2436 2439 2437 2441 2445 2449 2450 2450 2450 2451 2450 2458 2468 2473 2477 2483 2491 2502 2517 2527 2535 2536 2539 2542 2547 2551 2552 2558 2617 2645 2660 2664 2673 2674 2652 2632 2607 2599 2591 2581 2565 2554 2545 2538 2532 2528 2528 2530 2533 2536 2538 2541 2543 2545 2546 2547 2547 2548 2552 2555 2556 2556 2556 2556 2557 2558 2558 2558 2557 2558 2560 2563 2560 2559 2561 2563 2565 2568 2570 2573 2574 2575 2575 2575 2583 2589 2599 2607 2620 2642 2664 2675 2687 2695 2694 2664 2629 2588 2543 2498 2466 2457 2448 2440 2431 2420 2410 2401 2395 2387 2371 2349 2328 2303 2283 2269 2262 2252 2246 2239 2236 2229 2221 2212 2205 2199 2190 2181 2173 2164 2156 2150 2145 2140 2132 2128 2125 2124 2125 2124 2123 2123 2122 2118 2112 2111 2115 2117 2121
2418 2427 2434 2435 2433 2431 2426 2422 2419 2414 2413 2416 2419 2420 2417 2415 2416 2417 2421 2429 2436 2441 2440 2439 2441 2442 2443 2445 2448 2450 2451 2452 2452 2452 2455 2462 2467 2472 2476 2486 2496 2503 2513 2519 2523 2528 2534 2539 2547 2553 2559 2564 2612 2633 2648 2665 2675 2682 2671 2657 2634 2601 2595 2583 2571 2557 2545 2540 2534 2530 2528 2529 2532 2534 2536 2538 2540 2541 2542 2544 2550 2556 2558 2559 2559 2559 2558 2558 2561 2563 2561 2562 2564 2565 2567 2570 2572 2573 2573 2574 2576 2577 2578 2579 2580 2581 2583 2585 2590 2597 2611 2628 2650 2666 2675 2685 2696 2700 2694 2652 2604 2561 2523 2490 2453 2441 2431 2423 2413 2397 2385 2380 2377 2365 2349 2329 2307 2288 2271 2262 2253 2246 2241 2238 2235 2233 2229 2222 2215 2205 2195 2186 2177 2168 2158 2151 2147 2145 2145 2141 2140 2140 2138 2136 2133 2130 2123 2120 2121 2123 2125 2129 2134
2430 2434 2437 2439 2440 2436 2431 2430 2430 2428 2423 2423 2420 2419 2419 2418 2417 2418 2422 2429 2439 2444 2449 2452 2452 2451 2452 2455 2457 2459 2458 2455 2454 2452 2456 2460 2467 2471 2477 2488 2497 2508 2510 2513 2517 2523 2531 2538 2550 2561 2565 2577 2605 2618 2637 2659 2667 2675 2673 2667 2642 2603 2596 2583 2569 2557 2549 2542 2536 2531 2528 2529 2531 2533 2535 2537 2540 2543 2544 2548 2554 2557 2560 2560 2560 2560 2560 2562 2565 2569 2573 2574 2576 2578 2579 2582 2584 2585 2584 2581 2580 2581 2582 2584 2588 2591 2594 2598 2604 2613 2628 2647 2661 2673 2685 2697 2700 2700 2669 2625 2574 2526 2474 2436 2429 2422 2418 2409 2394 2379 2365 2352 2341 2326 2314 2303 2288 2273 2259 2251 2246 2240 2235 2233 2232 2230 2227 2224 2219 2212 2201 2189 2180 2171 2162 2156 2153 2156 2157 2158 2157 2157 2153 2148 2145 2140 2134 2133 2135 2138 2143 2145 2147
2436 2440 2443 2444 2446 2444 2441 2441 2442 2440 2436 2431 2425 2422 2421 2420 2421 2424 2426 2432 2440 2448 2456 2459 2461 2462 2462 2467 2469 2466 2472 2473 2471 2473 2472 2471 2470 2473 2479 2485 2493 2499 2505 2507 2512 2522 2532 2542 2552 2558 2566 2580 2597 2609 2624 2638 2648 2651 2657 2652 2628 2605 2592 2586 2572 2559 2553 2547 2541 2538 2536 2533 2532 2534 2536 2538 2541 2544 2547 2550 2554 2558 2561 2563 2566 2567 2568 2568 2571 2575 2579 2584 2588 2589 2589 2589 2590 2592 2593 2592 2590 2591 2593 2597 2603 2607 2609 2612 2619 2633 2649 2666 2680 2690 2696 2696 2681 2641 2594 2542 2497 2464 2440 2425 2413 2405 2393 2381 2368 2352 2342 2330 2315 2302 2293 2284 2272 2258 2250 2244 2238 2233 2230 2227 2226 2225 2223 2221 2219 2214 2205 2193 2180 2172 2167 2163 2161 2161 2163 2165 2166 2167 2166 2164 2162 2158 2152 2151 2155 2160 2162 2162 2166
2441 2448 2453 2457 2459 2461 2459 2457 2447 2441 2443 2441 2438 2432 2430 2428 2428 2428 2431 2436 2442 2449 2457 2463 2468 2468 2472 2477 2479 2481 2484 2488 2486 2486 2486 2482 2482 2483 2485 2488 2491 2496 2499 2504 2513 2521 2535 2539 2545 2547 2554 2569 2588 2595 2602 2613 2619 2626 2631 2635 2625 2611 2601 2589 2576 2564 2556 2551 2547 2545 2544 2540 2538 2539 2542 2543 2546 2548 2552 2556 2559 2562 2566 2570 2573 2576 2576 2575 2577 2580 2586 2591 2594 2597 2595 2593 2595 2597 2600 2602 2605 2607 2609 2613 2618 2621 2625 2640 2661 2676 2691 2703 2710 2703 2697 2693 2674 2598 2530 2496 2461 2439 2420 2409 2398 2384 2370 2352 2337 2328 2317 2303 2291 2284 2276 2268 2259 2251 2244 2240 2235 2228 2223 2223 2224 2223 2221 2218 2214 2211 2206 2196 2184 2174 2168 2165 2165 2165 2168 2170 2169 2169 2169 2170 2174 2173 2172 2172 2176 2181 2178 2179 2181
2446 2455 2463 2468 2471 2472 2472 2469 2456 2448 2449 2446 2440 2440 2438 2436 2434 2433 2436 2443 2449 2453 2460 2467 2470 2471 2477 2485 2491 2495 2498 2499 2497 2496 2495 2496 2499 2499 2496 2495 2495 2495 2498 2502 2506 2514 2520 2527 2530 2531 2541 2547 2565 2576 2579 2589 2601 2604 2614 2619 2615 2613 2601 2590 2576 2565 2556 2551 2548 2551 2549 2548 2546 2549 2550 2549 2550 2556 2564 2571 2577 2578 2576 2577 2581 2585 2588 2589 2591 2594 2596 2600 2602 2605 2609 2610 2610 2612 2614 2616 2619 2622 2631 2640 2646 2655 2673 2689 2698 2708 2720 2727 2713 2699 2690 2664 2588 2529 2500 2472 2451 2428 2411 2399 2389 2375 2354 2334 2322 2312 2304 2294 2281 2272 2264 2257 2249 2243 2239 2236 2231 2226 2222 2222 2223 2222 2221 2216 2211 2206 2201 2191 2180 2170 2163 2160 2161 2164 2167 2168 2167 2166 2165 2167 2175 2182 2187 2193 2198 2195 2198 2201 2200
2451 2459 2469 2475 2479 2482 2483 2474 2463 2460 2458 2453 2447 2441 2443 2443 2442 2443 2445 2450 2457 2461 2466 2469 2472 2474 2480 2488 2495 2506 2512 2515 2515 2519 2519 2524 2519 2512 2506 2504 2501 2496 2499 2501 2501 2502 2507 2514 2516 2523 2529 2538 2543 2551 2558 2574 2585 2590 2595 2599 2598 2599 2595 2588 2579 2568 2561 2554 2551 2553 2552 2555 2557 2555 2554 2554 2556 2563 2572 2581 2590 2593 2594 2593 2593 2594 2595 2598 2602 2607 2612 2616 2619 2622 2624 2627 2629 2625 2625 2629 2639 2654 2669 2682 2693 2701 2706 2710 2718 2725 2732 2731 2713 2694 2674 2619 2555 2518 2496 2472 2440 2410 2397 2389 2375 2358 2342 2324 2312 2301 2292 2282 2271 2262 2254 2247 2242 2237 2234 2230 2225 2223 2222 2222 2223 2222 2219 2215 2209 2203 2197 2187 2175 2164 2158 2156 2156 2156 2159 2162 2161 2160 2161 2167 2174 2184 2191 2194 2200 2209 2216 2218 2217
2464 2472 2479 2487 2494 2495 2500 2503 2481 2470 2468 2467 2463 2457 2453 2452 2452 2453 2453 2456 2463 2468 2471 2475 2477 2479 2484 2493 2502 2511 2517 2521 2526 2532 2538 2539 2536 2527 2518 2513 2507 2502 2501 2499 2496 2495 2498 2501 2506 2509 2517 2519 2528 2532 2537 2549 2568 2573 2571 2575 2577 2579 2579 2578 2576 2574 2566 2560 2558 2559 2559 2562 2564 2564 2563 2565 2569 2573 2581 2590 2598 2606 2610 2614 2617 2608 2601 2604 2618 2622 2620 2626 2630 2636 2640 2647 2652 2655 2657 2666 2684 2700 2709 2713 2715 2717 2719 2724 2730 2733 2735 2729 2720 2691 2659 2588 2523 2510 2495 2458 2422 2403 2384 2366 2348 2334 2320 2309 2298 2288 2278 2270 2262 2253 2244 2238 2234 2231 2226 2220 2218 2218 2220 2221 2219 2217 2214 2211 2204 2198 2191 2184 2173 2162 2155 2151 2150 2151 2154 2156 2156 2157 2161 2167 2176 2184 2191 2198 2205 2214 2223 2226 2224
2474 2482 2489 2497 2504 2511 2514 2514 2497 2480 2476 2477 2475 2471 2465 2461 2461 2460 2460 2462 2467 2470 2475 2478 2478 2481 2488 2496 2505 2515 2520 2525 2532 2537 2543 2547 2546 2540 2536 2526 2515 2504 2497 2493 2488 2487 2485 2487 2488 2493 2498 2501 2509 2517 2520 2526 2541 2555 2557 2556 2561 2564 2567 2568 2570 2571 2567 2562 2559 2562 2569 2575 2574 2575 2575 2578 2579 2584 2592 2601 2610 2620 2629 2637 2642 2640 2657 2687 2680 2667 2653 2645 2659 2673 2666 2658 2675 2692 2697 2703 2713 2722 2725 2726 2728 2732 2736 2739 2735 2729 2722 2715 2694 2650 2583 2537 2519 2509 2490 2449 2406 2384 2367 2352 2336 2317 2302 2293 2284 2274 2264 2257 2250 2242 2234 2229 2225 2223 2220 2217 2213 2214 2216 2216 2216 2213 2209 2206 2203 2198 2191 2184 2176 2163 2153 2147 2146 2147 2149 2150 2151 2153 2159 2166 2171 2179 2187 2195 2207 2218 2219 2220 2216
2482 2495 2508 2514 2517 2517 2519 2518 2511 2505 2504 2497 2488 2478 2471 2467 2469 2470 2469 2468 2472 2477 2480 2484 2485 2486 2491 2499 2507 2517 2525 2533 2539 2543 2547 2550 2550 2548 2539 2526 2511 2499 2490 2483 2476 2471 2472 2471 2474 2480 2483 2485 2495 2506 2508 2515 2527 2536 2542 2549 2548 2554 2556 2559 2560 2563 2565 2565 2564 2568 2576 2581 2586 2587 2588 2589 2588 2593 2599 2606 2617 2628 2638 2642 2646 2670 2698 2708 2711 2710 2706 2718 2733 2725 2707 2709 2718 2724 2729 2731 2733 2735 2740 2745 2742 2740 2737 2732 2724 2714 2702 2691 2672 2644 2578 2517 2513 2511 2450 2394 2380 2366 2349 2334 2318 2304 2294 2283 2273 2263 2255 2248 2239 2231 2225 2220 2217 2215 2214 2211 2209 2210 2211 2213 2213 2211 2208 2206 2204 2199 2193 2183 2173 2162 2151 2145 2143 2142 2143 2145 2146 2149 2155 2161 2167 2172 2177 2184 2193 2203 2207 2206 2205
2486 2500 2513 2521 2522 2522 2522 2523 2525 2524 2517 2510 2496 2490 2481 2482 2478 2477 2474 2471 2477 2483 2488 2489 2490 2490 2493 2500 2509 2518 2527 2536 2543 2546 2549 2552 2554 2551 2538 2516 2502 2489 2480 2473 2466 2462 2460 2457 2460 2463 2468 2469 2479 2488 2496 2503 2515 2522 2524 2523 2528 2531 2538 2543 2550 2553 2560 2566 2572 2578 2588 2597 2599 2603 2605 2606 2609 2611 2611 2618 2631 2644 2655 2663 2675 2686 2702 2717 2726 2728 2730 2735 2741 2742 2739 2737 2737 2741 2744 2747 2749 2756 2763 2757 2751 2735 2720 2711 2702 2689 2677 2660 2639 2598 2551 2521 2498 2445 2376 2353 2350 2338 2325 2316 2308 2296 2283 2272 2263 2255 2247 2240 2232 2225 2220 2215 2213 2211 2208 2205 2204 2204 2207 2210 2211 2210 2209 2207 2203 2198 2191 2183 2173 2162 2152 2145 2142 2141 2140 2138 2141 2147 2153 2158 2162 2164 2167 2174 2182 2185 2188 2188 2192
2487 2504 2514 2518 2524 2527 2528 2528 2528 2526 2515 2504 2493 2486 2486 2482 2478 2473 2473 2476 2482 2489 2492 2492 2490 2490 2492 2499 2508 2517 2526 2533 2539 2543 2545 2549 2552 2543 2529 2512 2496 2484 2475 2466 2457 2453 2448 2446 2446 2449 2451 2455 2459 2467 2477 2486 2495 2507 2508 2508 2509 2517 2524 2533 2542 2553 2560 2569 2580 2593 2602 2606 2609 2612 2614 2617 2622 2628 2631 2633 2642 2653 2664 2676 2688 2701 2710 2719 2728 2736 2737 2737 2741 2743 2744 2745 2743 2744 2746 2747 2750 2754 2754 2745 2729 2711 2693 2680 2669 2660 2652 2640 2624 2576 2522 2494 2472 2412 2343 2335 2329 2321 2315 2307 2299 2287 2276 2264 2253 2247 2243 2237 2231 2223 2217 2214 2211 2208 2203 2199 2198 2200 2202 2205 2207 2208 2207 2205 2201 2196 2190 2183 2173 2163 2154 2147 2143 2140 2139 2139 2143 2148 2153 2155 2157 2157 2162 2166 2170 2172 2174 2176 2179
2494 2502 2510 2520 2528 2532 2534 2538 2536 2523 2510 2495 2485 2480 2477 2472 2466 2464 2471 2477 2478 2487 2490 2486 2484 2486 2491 2497 2510 2516 2524 2527 2534 2536 2541 2544 2541 2534 2522 2507 2495 2481 2466 2456 2448 2442 2437 2435 2435 2436 2440 2444 2447 2450 2465 2470 2480 2493 2499 2502 2503 2509 2517 2528 2541 2554 2563 2573 2587 2598 2606 2612 2618 2625 2629 2634 2641 2650 2654 2656 2659 2662 2667 2678 2690 2701 2712 2722 2730 2736 2738 2741 2743 2742 2739 2735 2733 2732 2731 2728 2738 2751 2738 2722 2701 2678 2668 2658 2652 2645 2629 2610 2570 2530 2505 2481 2461 2431 2366 2319 2312 2311 2307 2301 2292 2281 2270 2260 2252 2245 2240 2235 2227 2220 2215 2213 2212 2207 2202 2199 2197 2198 2199 2201 2203 2203 2204 2201 2198 2192 2186 2179 2172 2163 2156 2150 2145 2142 2141 2143 2146 2150 2151 2151 2148 2147 2149 2155 2158 2159 2163 2165 2168
2499 2506 2518 2525 2530 2534 2538 2542 2541 2529 2510 2492 2481 2474 2466 2460 2450 2451 2457 2469 2471 2476 2480 2478 2478 2480 2485 2494 2505 2518 2520 2524 2527 2535 2536 2536 2532 2526 2517 2506 2495 2485 2472 2458 2447 2437 2429 2425 2423 2422 2426 2431 2434 2443 2454 2465 2471 2483 2490 2494 2493 2493 2512 2527 2537 2551 2567 2583 2592 2602 2610 2615 2621 2630 2636 2645 2659 2664 2665 2665 2666 2670 2676 2684 2693 2705 2718 2728 2738 2742 2744 2742 2742 2733 2724 2723 2721 2714 2706 2700 2694 2694 2696 2678 2655 2645 2645 2643 2637 2630 2613 2586 2554 2525 2500 2475 2442 2401 2348 2302 2297 2295 2293 2290 2282 2275 2265 2257 2250 2243 2236 2228 2221 2214 2211 2209 2209 2207 2202 2198 2198 2198 2198 2199 2200 2200 2197 2195 2192 2188 2183 2176 2170 2163 2156 2150 2145 2142 2142 2143 2145 2147 2148 2146 2144 2142 2140 2139 2142 2147 2150 2154 2158
2504 2511 2518 2524 2527 2530 2536 2541 2539 2530 2515 2496 2475 2462 2452 2437 2431 2430 2440 2453 2461 2464 2465 2469 2471 2472 2477 2481 2501 2510 2515 2513 2522 2532 2534 2527 2521 2518 2514 2508 2500 2492 2485 2483 2460 2431 2421 2416 2414 2413 2413 2414 2419 2426 2446 2468 2467 2477 2481 2484 2484 2488 2509 2517 2528 2548 2568 2590 2601 2609 2617 2625 2633 2639 2648 2661 2669 2675 2675 2673 2675 2680 2686 2694 2706 2717 2723 2732 2742 2747 2743 2735 2725 2715 2704 2700 2695 2688 2682 2677 2674 2668 2663 2649 2633 2625 2619 2619 2620 2604 2585 2559 2529 2512 2498 2472 2439 2373 2317 2303 2288 2284 2280 2276 2272 2267 2259 2252 2243 2232 2224 2218 2212 2208 2206 2204 2203 2201 2198 2197 2197 2197 2197 2197 2196 2195 2192 2188 2186 2183 2179 2175 2170 2162 2154 2146 2142 2141 2142 2143 2143 2143 2142 2143 2143 2140 2136 2132 2133 2137 2141 2145 2151
2507 2509 2513 2520 2526 2529 2533 2537 2534 2519 2506 2477 2448 2454 2434 2421 2412 2410 2421 2435 2445 2448 2446 2451 2460 2455 2458 2474 2485 2500 2508 2518 2527 2523 2532 2529 2518 2511 2505 2500 2493 2488 2486 2473 2450 2431 2414 2408 2406 2405 2402 2401 2403 2412 2443 2474 2480 2486 2485 2489 2492 2490 2491 2494 2541 2556 2575 2591 2603 2612 2621 2634 2640 2644 2652 2662 2672 2682 2684 2684 2685 2687 2695 2708 2718 2726 2733 2739 2742 2743 2736 2726 2706 2686 2674 2664 2658 2652 2648 2643 2645 2633 2631 2626 2611 2596 2585 2579 2574 2561 2545 2524 2489 2467 2456 2425 2376 2324 2296 2289 2282 2278 2273 2268 2263 2259 2253 2243 2234 2227 2221 2214 2206 2203 2202 2200 2199 2197 2195 2193 2191 2190 2191 2192 2191 2190 2187 2185 2183 2179 2176 2173 2167 2159 2151 2144 2139 2138 2139 2140 2138 2136 2136 2137 2138 2137 2135 2132 2127 2129 2134 2139 2144
2509 2513 2519 2524 2528 2530 2534 2530 2523 2514 2499 2499 2467 2452 2426 2407 2391 2391 2399 2415 2428 2432 2429 2430 2430 2449 2454 2465 2476 2493 2509 2517 2520 2528 2533 2534 2530 2515 2496 2485 2479 2478 2473 2452 2434 2429 2416 2404 2399 2397 2395 2394 2393 2395 2416 2483 2512 2510 2507 2503 2513 2512 2514 2517 2535 2554 2557 2593 2602 2607 2615 2621 2643 2657 2665 2679 2690 2695 2700 2706 2709 2713 2720 2724 2728 2729 2728 2740 2741 2739 2729 2704 2678 2656 2645 2638 2634 2632 2629 2627 2623 2614 2606 2591 2575 2560 2548 2536 2530 2523 2496 2463 2444 2428 2411 2395 2355 2309 2298 2288 2280 2273 2266 2262 2256 2251 2244 2237 2231 2225 2219 2212 2205 2200 2198 2196 2194 2192 2190 2187 2186 2185 2185 2186 2187 2188 2186 2182 2179 2176 2173 2168 2162 2156 2151 2145 2139 2137 2136 2134 2134 2133 2130 2131 2132 2133 2135 2134 2129 2127 2128 2133 2138
2509 2520 2524 2527 2529 2524 2530 2527 2521 2510 2493 2479 2458 2439 2425 2391 2376 2378 2386 2391 2406 2414 2415 2413 2435 2446 2456 2463 2475 2492 2504 2511 2519 2523 2526 2524 2533 2507 2486 2479 2472 2462 2452 2438 2424 2416 2406 2399 2393 2391 2388 2385 2381 2378 2376 2404 2505 2553 2519 2515 2519 2522 2520 2520 2522 2530 2547 2573 2579 2605 2609 2614 2632 2664 2676 2688 2698 2707 2713 2719 2722 2720 2729 2732 2735 2731 2733 2717 2706 2672 2660 2646 2632 2625 2620 2616 2612 2611 2613 2590 2580 2567 2557 2555 2549 2530 2514 2513 2510 2494 2469 2448 2425 2397 2374 2344 2320 2308 2300 2292 2279 2266 2260 2254 2249 2245 2238 2231 2226 2221 2216 2209 2203 2198 2193 2189 2188 2187 2185 2183 2182 2181 2182 2184 2186 2187 2185 2181 2176 2173 2168 2165 2159 2154 2150 2146 2142 2137 2133 2130 2128 2126 2125 2126 2128 2129 2131 2130 2126 2121 2122 2125 2132
2504 2505 2509 2515 2520 2526 2526 2523 2517 2510 2494 2467 2439 2426 2411 2380 2379 2366 2375 2380 2381 2386 2388 2401 2405 2425 2446 2464 2479 2496 2504 2507 2515 2520 2529 2528 2513 2496 2481 2473 2468 2459 2439 2417 2406 2397 2384 2385 2380 2374 2372 2370 2367 2364 2364 2373 2391 2475 2494 2512 2518 2527 2522 2520 2517 2519 2531 2550 2577 2585 2601 2611 2627 2644 2675 2690 2703 2706 2713 2720 2726 2726 2730 2732 2730 2734 2718 2666 2654 2641 2640 2622 2612 2599 2591 2587 2579 2574 2568 2557 2546 2537 2531 2530 2517 2504 2497 2493 2487 2471 2450 2423 2393 2368 2342 2327 2316 2307 2298 2287 2275 2266 2259 2254 2250 2241 2233 2227 2222 2218 2212 2207 2202 2197 2192 2187 2183 2181 2180 2180 2180 2181 2183 2184 2183 2182 2179 2174 2170 2166 2162 2158 2155 2152 2149 2145 2140 2134 2130 2126 2124 2121 2120 2123 2125 2125 2126 2124 2120 2119 2118 2122 2129
2499 2501 2502 2509 2510 2513 2516 2515 2510 2497 2478 2455 2435 2420 2405 2390 2376 2368 2357 2356 2359 2365 2366 2369 2394 2405 2430 2450 2473 2496 2499 2503 2513 2519 2522 2518 2506 2491 2465 2463 2459 2449 2421 2397 2387 2378 2368 2365 2362 2358 2357 2358 2358 2360 2367 2377 2384 2385 2466 2490 2509 2517 2519 2518 2525 2522 2524 2543 2561 2584 2591 2602 2609 2625 2632 2680 2696 2701 2703 2708 2715 2722 2723 2727 2726 2685 2647 2625 2615 2612 2609 2594 2581 2577 2572 2563 2553 2545 2553 2541 2526 2513 2498 2508 2493 2482 2474 2466 2450 2434 2415 2391 2369 2347 2333 2322 2313 2303 2293 2286 2277 2268 2261 2256 2247 2237 2228 2222 2217 2214 2210 2204 2199 2195 2191 2186 2182 2180 2180 2180 2180 2181 2181 2180 2178 2174 2169 2165 2162 2159 2156 2153 2150 2148 2145 2142 2137 2131 2126 2123 2121 2119 2118 2119 2119 2119 2118 2118 2119 2119 2122 2124 2128
2488 2488 2492 2494 2497 2498 2501 2497 2491 2481 2462 2442 2426 2412 2399 2392 2383 2359 2354 2348 2341 2340 2347 2346 2354 2392 2406 2428 2442 2490 2495 2498 2504 2510 2512 2507 2492 2465 2437 2431 2426 2416 2399 2377 2364 2360 2354 2348 2344 2343 2345 2347 2350 2357 2366 2376 2380 2384 2443 2460 2483 2516 2513 2510 2511 2520 2530 2534 2548 2560 2586 2598 2594 2597 2610 2616 2684 2691 2687 2697 2697 2699 2689 2660 2626 2615 2601 2609 2586 2579 2575 2570 2566 2564 2560 2554 2550 2548 2538 2523 2502 2489 2477 2468 2458 2457 2448 2434 2418 2401 2386 2373 2358 2347 2337 2327 2315 2304 2294 2284 2274 2266 2258 2251 2241 2229 2221 2216 2212 2209 2206 2203 2197 2191 2187 2184 2182 2180 2180 2181 2181 2180 2178 2176 2172 2168 2166 2162 2159 2154 2150 2147 2144 2141 2139 2138 2135 2129 2124 2121 2118 2116 2114 2114 2114 2112 2112 2115 2117 2120 2120 2124 2127
2481 2480 2481 2484 2484 2486 2483 2473 2460 2449 2433 2416 2406 2392 2390 2385 2369 2361 2341 2324 2319 2315 2317 2325 2338 2353 2399 2403 2434 2450 2487 2490 2490 2490 2488 2488 2459 2438 2428 2413 2407 2387 2364 2355 2346 2340 2334 2328 2327 2328 2332 2335 2341 2350 2360 2368 2373 2378 2387 2419 2429 2462 2467 2473 2480 2494 2517 2514 2528 2540 2549 2557 2561 2558 2556 2555 2554 2597 2595 2617 2602 2596 2614 2622 2612 2588 2576 2570 2564 2561 2559 2559 2555 2552 2548 2546 2536 2530 2507 2485 2471 2456 2447 2440 2439 2435 2427 2412 2394 2381 2368 2359 2351 2343 2334 2324 2316 2307 2294 2282 2274 2267 2258 2247 2235 2225 2218 2214 2210 2206 2203 2199 2194 2189 2186 2183 2181 2181 2181 2181 2180 2179 2177 2175 2173 2171 2167 2162 2157 2153 2146 2139 2137 2135 2134 2132 2130 2128 2123 2119 2116 2113 2112 2111 2109 2107 2107 2110 2113 2113 2115 2116 2121
2474 2479 2477 2480 2477 2470 2463 2446 2431 2412 2397 2382 2376 2375 2375 2365 2356 2333 2320 2301 2285 2305 2297 2307 2313 2331 2351 2371 2397 2426 2451 2473 2474 2472 2467 2455 2425 2411 2399 2386 2367 2351 2342 2333 2326 2319 2313 2307 2307 2312 2318 2323 2330 2339 2347 2354 2362 2366 2375 2404 2405 2413 2438 2441 2451 2451 2466 2484 2493 2501 2515 2524 2527 2518 2503 2508 2520 2516 2546 2560 2553 2553 2545 2550 2542 2545 2547 2549 2550 2548 2546 2546 2539 2530 2521 2510 2483 2477 2463 2446 2434 2429 2422 2419 2417 2416 2406 2390 2378 2368 2362 2352 2341 2333 2325 2317 2309 2301 2293 2282 2273 2264 2255 2244 2232 2223 2216 2211 2207 2203 2198 2193 2190 2189 2186 2183 2182 2181 2181 2182 2184 2186 2187 2188 2186 2182 2178 2173 2167 2158 2148 2138 2132 2130 2128 2128 2127 2126 2121 2117 2113 2111 2111 2109 2108 2106 2106 2106 2107 2106 2106 2109 2117
2472 2471 2472 2464 2447 2428 2414 2399 2384 2368 2362 2351 2353 2353 2353 2335 2317 2288 2293 2282 2273 2274 2284 2287 2293 2294 2315 2318 2368 2395 2416 2423 2426 2418 2406 2409 2408 2384 2363 2365 2348 2334 2324 2315 2307 2299 2292 2290 2291 2295 2300 2311 2321 2326 2330 2338 2347 2350 2357 2368 2405 2402 2407 2402 2416 2409 2412 2442 2466 2472 2476 2481 2477 2475 2469 2476 2470 2482 2483 2502 2520 2518 2523 2526 2526 2524 2528 2529 2527 2522 2518 2502 2473 2452 2452 2446 2433 2431 2416 2400 2399 2394 2386 2391 2397 2394 2386 2375 2368 2363 2356 2345 2334 2326 2318 2310 2304 2298 2289 2279 2268 2259 2252 2243 2230 2217 2209 2204 2201 2197 2194 2192 2190 2188 2186 2184 2184 2185 2185 2187 2191 2195 2199 2200 2200 2199 2193 2187 2179 2166 2151 2139 2129 2127 2126 2127 2127 2124 2121 2117 2113 2111 2110 2108 2105 2102 2101 2102 2101 2100 2097 2101 2109
2376 2374 2372 2378 2371 2364 2364 2347 2326 2325 2322 2316 2308 2307 2307 2285 2270 2242 2236 2233 2240 2254 2263 2263 2268 2270 2299 2302 2319 2350 2373 2373 2384 2377 2384 2376 2375 2364 2344 2334 2324 2314 2305 2301 2297 2291 2284 2277 2274 2279 2290 2302 2309 2312 2315 2324 2332 2336 2339 2350 2370 2372 2368 2369 2368 2360 2382 2400 2427 2427 2436 2436 2435 2434 2434 2437 2426 2424 2447 2461 2483 2479 2479 2485 2484 2484 2479 2478 2466 2455 2444 2417 2400 2384 2365 2361 2360 2367 2372 2367 2368 2366 2363 2375 2378 2375 2367 2361 2358 2355 2350 2339 2327 2316 2309 2306 2300 2292 2284 2273 2263 2253 2246 2238 2226 2212 2201 2196 2193 2191 2190 2188 2187 2186 2185 2185 2186 2189 2192 2194 2198 2203 2206 2211 2213 2210 2208 2206 2197 2176 2155 2144 2135 2128 2128 2128 2126 2124 2120 2115 2111 2109 2108 2105 2101 2098 2097 2096 2095 2093 2093 2096 2101
2310 2298 2306 2304 2291 2298 2283 2272 2271 2265 2253 2253 2256 2250 2233 2216 2206 2200 2196 2203 2212 2238 2246 2230 2245 2252 2261 2274 2288 2308 2328 2335 2343 2341 2350 2354 2349 2343 2327 2319 2306 2297 2293 2291 2288 2281 2273 2268 2266 2273 2284 2292 2297 2301 2300 2306 2314 2317 2323 2333 2333 2341 2341 2346 2347 2348 2364 2379 2395 2405 2400 2396 2400 2386 2389 2383 2386 2389 2417 2420 2421 2442 2443 2429 2430 2424 2420 2406 2384 2367 2356 2341 2335 2329 2328 2326 2327 2335 2340 2343 2347 2349 2353 2359 2358 2355 2355 2352 2346 2341 2334 2327 2315 2309 2305 2301 2295 2286 2275 2265 2255 2248 2241 2229 2214 2201 2194 2191 2189 2188 2188 2187 2186 2185 2186 2186 2189 2195 2200 2204 2209 2213 2216 2216 2217 2216 2216 2214 2213 2210 2188 2158 2143 2138 2132 2126 2123 2120 2118 2116 2113 2110 2106 2102 2099 2096 2094 2091 2089 2090 2092 2092 2093
2234 2242 2220 2224 2239 2231 2225 2222 2214 2202 2197 2193 2195 2192 2193 2187 2182 2180 2184 2188 2197 2217 2228 2237 2225 2224 2245 2255 2275 2281 2297 2319 2325 2318 2326 2325 2321 2323 2313 2298 2293 2287 2281 2275 2268 2263 2261 2259 2259 2268 2280 2287 2291 2289 2289 2289 2293 2297 2303 2312 2317 2320 2316 2320 2329 2329 2343 2357 2377 2386 2381 2366 2352 2352 2357 2354 2361 2344 2344 2358 2385 2379 2367 2363 2371 2360 2355 2352 2343 2340 2336 2328 2322 2319 2318 2316 2315 2315 2316 2321 2327 2335 2344 2342 2342 2342 2343 2338 2334 2329 2322 2313 2306 2301 2299 2295 2286 2276 2264 2253 2245 2237 2227 2213 2200 2193 2190 2189 2189 2189 2188 2187 2186 2186 2186 2189 2195 2202 2208 2215 2222 2231 2237 2237 2235 2233 2232 2229 2228 2219 2196 2173 2161 2145 2130 2120 2117 2116 2115 2115 2113 2108 2102 2098 2094 2092 2088 2084 2082 2084 2083 2083 2081
2173 2169 2165 2159 2201 2198 2166 2168 2169 2172 2166 2168 2169 2171 2169 2168 2166 2166 2168 2174 2184 2195 2206 2218 2226 2220 2223 2235 2251 2273 2292 2302 2303 2303 2300 2296 2296 2300 2287 2277 2274 2272 2264 2251 2244 2246 2246 2244 2245 2260 2274 2281 2278 2277 2276 2274 2274 2275 2281 2289 2299 2305 2307 2305 2311 2307 2316 2329 2338 2353 2351 2346 2335 2326 2325 2329 2319 2317 2325 2320 2318 2320 2317 2317 2322 2320 2326 2323 2320 2321 2318 2316 2313 2308 2306 2301 2302 2303 2305 2311 2316 2321 2329 2327 2326 2329 2329 2327 2324 2320 2313 2306 2300 2295 2290 2282 2272 2261 2251 2243 2234 2222 2210 2199 2194 2191 2189 2187 2187 2187 2186 2185 2184 2183 2186 2193 2201 2210 2221 2229 2238 2250 2256 2256 2255 2251 2243 2237 2231 2226 2217 2197 2165 2142 2127 2115 2109 2107 2108 2109 2109 2105 2099 2095 2091 2086 2082 2079 2077 2077 2077 2075 2081
2146 2143 2140 2136 2138 2146 2148 2148 2148 2149 2152 2154 2156 2156 2155 2153 2153 2154 2156 2165 2175 2182 2189 2199 2207 2208 2221 2218 2232 2238 2277 2289 2292 2283 2276 2270 2270 2275 2261 2259 2260 2257 2252 2239 2233 2231 2230 2229 2231 2244 2258 2262 2263 2262 2261 2258 2260 2261 2265 2273 2282 2289 2289 2284 2283 2296 2288 2299 2315 2317 2316 2312 2305 2298 2291 2292 2295 2294 2292 2289 2292 2293 2288 2290 2297 2306 2305 2302 2300 2299 2299 2298 2302 2296 2292 2291 2291 2294 2296 2297 2304 2311 2313 2313 2313 2313 2315 2313 2310 2305 2297 2291 2287 2281 2274 2267 2257 2246 2236 2229 2219 2208 2199 2194 2191 2188 2186 2184 2184 2184 2184 2182 2183 2187 2196 2206 2215 2224 2232 2243 2257 2267 2272 2271 2268 2266 2256 2243 2235 2225 2206 2163 2135 2127 2115 2103 2096 2094 2095 2097 2097 2094 2091 2087 2082 2079 2075 2075 2075 2080 2076 2079 2081
2126 2124 2125 2126 2124 2122 2123 2128 2131 2131 2136 2141 2145 2144 2143 2142 2137 2139 2146 2154 2159 2169 2173 2178 2190 2194 2204 2209 2216 2231 2245 2256 2263 2263 2257 2252 2248 2256 2246 2238 2239 2242 2236 2227 2219 2215 2217 2217 2219 2227 2235 2245 2248 2248 2244 2243 2246 2250 2256 2263 2269 2269 2268 2267 2267 2270 2276 2280 2285 2287 2287 2285 2279 2278 2281 2284 2285 2281 2278 2277 2275 2272 2278 2282 2287 2287 2288 2287 2287 2283 2279 2276 2278 2275 2268 2271 2276 2280 2282 2284 2287 2293 2295 2297 2299 2300 2298 2295 2290 2285 2279 2275 2269 2263 2258 2252 2243 2234 2224 2214 2206 2198 2192 2189 2187 2184 2181 2182 2184 2186 2186 2186 2191 2203 2215 2225 2233 2241 2254 2269 2280 2288 2289 2285 2280 2272 2262 2249 2238 2214 2172 2144 2129 2113 2099 2088 2081 2080 2082 2084 2084 2082 2077 2071 2069 2066 2065 2066 2071 2074 2074 2071 2077
2110 2109 2111 2108 2109 2109 2113 2113 2118 2123 2127 2132 2134 2134 2130 2127 2126 2126 2130 2138 2149 2156 2153 2159 2166 2172 2173 2197 2201 2209 2220 2229 2229 2230 2228 2229 2233 2242 2231 2221 2219 2219 2216 2210 2205 2201 2204 2206 2209 2214 2221 2226 2232 2234 2231 2228 2232 2237 2242 2249 2251 2253 2252 2251 2251 2251 2256 2260 2260 2262 2260 2257 2258 2264 2269 2271 2276 2274 2268 2263 2259 2255 2259 2265 2271 2269 2270 2270 2269 2265 2261 2257 2255 2260 2262 2265 2271 2276 2279 2279 2279 2281 2284 2285 2287 2287 2285 2281 2276 2268 2261 2255 2251 2247 2241 2234 2229 2219 2208 2200 2191 2183 2181 2179 2181 2180 2182 2184 2189 2195 2198 2200 2208 2220 2234 2246 2258 2277 2291 2296 2298 2297 2293 2287 2279 2269 2257 2244 2209 2158 2131 2113 2097 2088 2079 2072 2067 2066 2066 2069 2071 2064 2057 2054 2052 2049 2049 2050 2054 2060 2060 2060 2063
2090 2094 2095 2098 2097 2102 2106 2110 2113 2116 2119 2118 2121 2123 2122 2118 2118 2118 2121 2129 2138 2146 2147 2148 2153 2151 2159 2178 2176 2188 2195 2200 2201 2202 2204 2205 2207 2208 2211 2203 2196 2197 2198 2195 2192 2189 2189 2192 2197 2201 2205 2209 2214 2215 2213 2215 2220 2224 2226 2232 2235 2236 2240 2241 2236 2234 2236 2240 2247 2238 2237 2242 2249 2255 2262 2265 2261 2256 2246 2241 2238 2249 2251 2252 2250 2250 2250 2250 2249 2249 2249 2248 2247 2247 2250 2253 2257 2260 2262 2266 2269 2272 2274 2275 2275 2273 2270 2266 2259 2252 2244 2239 2234 2230 2224 2216 2206 2198 2191 2184 2179 2176 2175 2175 2178 2184 2188 2193 2205 2213 2216 2222 2231 2246 2265 2281 2295 2304 2311 2314 2311 2306 2296 2286 2271 2260 2241 2195 2150 2126 2110 2094 2079 2066 2058 2051 2049 2048 2048 2047 2043 2040 2038 2035 2033 2029 2029 2029 2032 2042 2044 2047 2047
2080 2080 2084 2089 2092 2096 2099 2106 2105 2108 2108 2108 2109 2108 2109 2110 2107 2105 2114 2121 2128 2137 2143 2149 2148 2149 2151 2169 2184 2178 2175 2175 2177 2183 2184 2189 2194 2196 2189 2185 2183 2183 2182 2179 2177 2175 2174 2176 2180 2185 2189 2193 2193 2193 2194 2199 2204 2207 2210 2215 2221 2223 2225 2225 2221 2218 2220 2225 2227 2231 2236 2237 2239 2243 2247 2247 2243 2241 2232 2229 2227 2229 2234 2235 2234 2233 2235 2235 2237 2236 2236 2236 2237 2238 2241 2244 2246 2247 2248 2252 2256 2258 2258 2258 2256 2253 2247 2242 2239 2235 2228 2221 2216 2208 2200 2194 2188 2180 2176 2174 2173 2174 2175 2180 2186 2192 2200 2216 2228 2234 2241 2254 2265 2280 2299 2313 2317 2318 2319 2319 2313 2302 2288 2271 2258 2238 2196 2155 2134 2122 2107 2089 2074 2059 2046 2041 2038 2038 2035 2031 2026 2024 2022 2020 2015 2013 2012 2010 2014 2018 2024 2027 2029
2062 2062 2070 2074 2082 2082 2087 2091 2094 2095 2097 2099 2097 2095 2095 2095 2095 2101 2109 2113 2119 2129 2134 2138 2142 2141 2146 2153 2161 2162 2165 2166 2165 2173 2176 2178 2179 2175 2172 2171 2171 2172 2169 2166 2162 2159 2158 2156 2161 2169 2174 2175 2178 2178 2179 2183 2187 2189 2191 2199 2204 2207 2209 2210 2207 2206 2207 2209 2210 2210 2215 2222 2228 2230 2230 2228 2227 2226 2225 2220 2213 2212 2213 2216 2218 2216 2215 2217 2220 2220 2219 2221 2224 2229 2233 2236 2237 2238 2238 2240 2241 2242 2242 2240 2235 2229 2223 2218 2216 2213 2207 2202 2196 2187 2185 2182 2177 2172 2169 2167 2168 2172 2185 2194 2197 2204 2223 2239 2247 2254 2264 2282 2307 2322 2329 2330 2330 2327 2323 2317 2308 2290 2268 2254 2231 2194 2162 2145 2133 2118 2100 2084 2070 2057 2043 2033 2029 2026 2023 2018 2013 2011 2007 2003 2000 1999 1998 1997 1999 2003 2004 2009 2013
2049 2050 2056 2064 2069 2071 2072 2076 2077 2079 2083 2084 2083 2083 2084 2085 2088 2095 2102 2104 2109 2119 2123 2124 2126 2130 2134 2136 2136 2137 2141 2151 2154 2160 2159 2161 2163 2162 2161 2160 2159 2158 2154 2148 2143 2140 2140 2146 2150 2152 2155 2156 2160 2167 2170 2174 2177 2178 2179 2183 2189 2192 2196 2197 2196 2194 2194 2195 2197 2200 2203 2207 2211 2211 2211 2211 2213 2214 2212 2208 2205 2204 2203 2202 2201 2201 2201 2200 2201 2202 2204 2206 2210 2214 2216 2218 2220 2222 2224 2224 2226 2226 2224 2217 2209 2206 2203 2200 2196 2192 2188 2183 2177 2174 2170 2170 2169 2162 2161 2162 2172 2185 2198 2211 2221 2230 2243 2260 2277 2290 2301 2314 2324 2334 2338 2338 2334 2329 2322 2312 2297 2276 2251 2215 2189 2174 2156 2141 2127 2110 2090 2073 2061 2049 2038 2028 2022 2016 2012 2008 2003 2000 1997 1993 1990 1988 1988 1988 1989 1991 1994 1996 2000
2040 2043 2048 2055 2057 2060 2061 2062 2064 2067 2070 2072 2073 2073 2074 2075 2078 2084 2091 2097 2102 2109 2110 2113 2115 2119 2119 2120 2119 2117 2121 2126 2133 2139 2147 2149 2151 2151 2149 2146 2144 2140 2135 2131 2127 2125 2125 2133 2139 2141 2140 2141 2145 2151 2160 2166 2168 2169 2168 2173 2176 2178 2183 2185 2183 2182 2184 2184 2184 2186 2191 2195 2197 2198 2199 2200 2200 2200 2199 2196 2192 2191 2191 2189 2188 2187 2186 2186 2186 2187 2189 2193 2193 2193 2196 2198 2202 2202 2201 2201 2201 2201 2197 2193 2191 2190 2188 2187 2184 2179 2174 2171 2167 2162 2159 2156 2153 2155 2157 2170 2184 2201 2217 2233 2246 2253 2262 2277 2294 2309 2321 2329 2336 2343 2345 2342 2335 2325 2316 2303 2270 2237 2211 2185 2167 2154 2142 2131 2121 2104 2087 2071 2059 2048 2037 2028 2020 2013 2009 2004 2001 1997 1993 1989 1985 1982 1980 1980 1981 1982 1986 1987 1989
2031 2035 2041 2045 2047 2048 2052 2054 2056 2058 2059 2059 2061 2063 2066 2067 2068 2071 2078 2085 2090 2093 2095 2095 2099 2099 2102 2104 2107 2107 2107 2112 2116 2125 2131 2136 2138 2138 2137 2133 2129 2125 2121 2118 2112 2109 2109 2117 2124 2127 2129 2131 2136 2140 2145 2151 2153 2153 2155 2160 2165 2166 2169 2169 2169 2170 2171 2172 2175 2177 2180 2184 2188 2189 2189 2189 2189 2188 2186 2182 2176 2176 2177 2177 2176 2175 2175 2176 2176 2175 2175 2175 2175 2177 2178 2180 2182 2183 2180 2177 2178 2178 2175 2173 2173 2171 2171 2170 2163 2158 2158 2157 2154 2152 2147 2148 2157 2165 2177 2193 2213 2233 2250 2259 2265 2274 2284 2294 2308 2322 2334 2343 2349 2350 2348 2336 2325 2316 2297 2248 2214 2203 2188 2173 2157 2144 2134 2125 2113 2100 2087 2073 2062 2052 2041 2030 2019 2012 2006 2004 2000 1996 1992 1986 1982 1978 1975 1973 1973 1976 1978 1979 1978
2023 2028 2034 2036 2036 2036 2039 2044 2048 2051 2050 2050 2051 2054 2057 2059 2059 2062 2067 2071 2075 2080 2080 2081 2084 2087 2089 2092 2095 2097 2099 2103 2106 2111 2117 2121 2125 2128 2126 2123 2119 2113 2108 2103 2100 2098 2099 2101 2107 2112 2115 2121 2125 2130 2134 2133 2134 2140 2143 2145 2149 2151 2152 2154 2155 2158 2160 2163 2167 2171 2173 2175 2177 2179 2178 2179 2180 2179 2177 2172 2167 2165 2164 2165 2165 2167 2168 2166 2166 2165 2162 2161 2160 2162 2164 2161 2159 2160 2162 2162 2161 2161 2158 2153 2150 2150 2149 2144 2143 2145 2145 2143 2141 2140 2149 2161 2172 2181 2193 2210 2230 2250 2262 2272 2283 2293 2302 2310 2323 2335 2344 2351 2353 2352 2340 2325 2307 2280 2245 2214 2197 2186 2173 2162 2150 2138 2126 2117 2107 2096 2085 2074 2063 2051 2040 2029 2018 2008 2002 1997 1993 1990 1986 1982 1979 1976 1973 1969 1968 1970 1973 1971 1971
2017 2022 2026 2027 2025 2025 2029 2035 2039 2041 2042 2041 2041 2045 2048 2050 2051 2052 2054 2060 2066 2068 2067 2069 2073 2079 2082 2084 2087 2088 2090 2093 2094 2097 2102 2105 2111 2114 2112 2108 2103 2100 2096 2093 2090 2091 2092 2094 2097 2102 2106 2110 2113 2115 2116 2117 2119 2123 2128 2132 2136 2138 2140 2144 2149 2151 2154 2158 2162 2166 2168 2169 2170 2171 2170 2169 2167 2164 2161 2159 2158 2157 2157 2157 2157 2158 2157 2157 2155 2152 2151 2149 2149 2147 2146 2144 2141 2140 2142 2142 2143 2141 2136 2133 2132 2131 2129 2132 2135 2135 2135 2134 2134 2146 2159 2165 2171 2180 2191 2217 2240 2254 2271 2292 2308 2319 2328 2335 2341 2349 2351 2354 2353 2347 2333 2314 2287 2254 2220 2193 2179 2166 2155 2146 2138 2128 2119 2110 2102 2093 2081 2070 2060 2049 2039 2029 2017 2007 2001 1995 1991 1986 1983 1979 1975 1973 1971 1966 1965 1965 1964 1961 1960
2009 2012 2015 2015 2016 2015 2019 2025 2028 2029 2030 2032 2036 2039 2041 2042 2041 2040 2043 2049 2053 2055 2056 2057 2064 2069 2074 2077 2078 2078 2080 2083 2084 2086 2090 2093 2096 2098 2095 2091 2090 2087 2086 2085 2086 2086 2085 2087 2091 2094 2096 2099 2101 2103 2104 2105 2107 2110 2115 2121 2127 2130 2135 2140 2144 2147 2150 2152 2154 2157 2161 2162 2162 2162 2159 2158 2156 2153 2152 2152 2152 2150 2150 2150 2148 2146 2148 2149 2146 2144 2142 2141 2136 2132 2130 2130 2126 2123 2121 2118 2119 2122 2120 2120 2120 2119 2120 2121 2122 2123 2123 2123 2126 2134 2147 2166 2180 2191 2208 2230 2250 2276 2303 2318 2331 2340 2347 2358 2369 2367 2366 2357 2348 2334 2319 2296 2268 2228 2198 2182 2168 2155 2144 2135 2127 2120 2112 2105 2097 2086 2076 2067 2058 2047 2036 2028 2020 2011 2004 1997 1991 1985 1980 1973 1971 1969 1966 1963 1960 1960 1958 1954 1952
2003 2006 2006 2007 2007 2008 2010 2013 2016 2019 2023 2027 2030 2032 2032 2030 2031 2031 2032 2035 2038 2043 2046 2051 2058 2062 2065 2068 2069 2069 2071 2072 2075 2077 2080 2082 2081 2082 2080 2078 2077 2075 2075 2076 2076 2075 2077 2080 2085 2086 2087 2088 2091 2094 2096 2097 2100 2102 2106 2113 2118 2123 2129 2134 2137 2139 2141 2144 2145 2147 2150 2152 2153 2153 2152 2151 2149 2148 2148 2147 2145 2144 2143 2142 2142 2141 2141 2140 2138 2135 2133 2131 2127 2122 2119 2115 2113 2112 2108 2105 2104 2103 2104 2104 2107 2108 2107 2105 2108 2112 2112 2113 2122 2131 2158 2185 2196 2206 2219 2232 2267 2305 2325 2341 2354 2364 2367 2371 2375 2375 2366 2349 2328 2307 2288 2262 2228 2206 2188 2172 2160 2152 2143 2132 2122 2113 2107 2100 2090 2079 2069 2063 2057 2050 2042 2032 2022 2014 2005 1996 1988 1982 1974 1969 1967 1965 1961 1957 1956 1956 1954 1949 1946
1998 1999 2000 2000 2001 2000 2000 2002 2004 2011 2018 2021 2022 2021 2018 2018 2018 2022 2024 2029 2033 2035 2039 2042 2048 2051 2055 2058 2058 2057 2058 2061 2064 2068 2071 2072 2071 2068 2067 2067 2066 2066 2067 2067 2067 2069 2070 2074 2078 2080 2081 2080 2082 2083 2085 2092 2096 2097 2101 2107 2112 2118 2124 2127 2129 2129 2131 2134 2136 2139 2142 2145 2147 2147 2146 2144 2144 2142 2142 2140 2138 2135 2134 2134 2135 2134 2133 2132 2130 2125 2121 2119 2116 2114 2110 2106 2103 2100 2097 2095 2093 2093 2093 2093 2092 2093 2095 2098 2102 2111 2116 2120 2126 2143 2164 2187 2202 2210 2225 2244 2281 2331 2355 2367 2378 2385 2394 2405 2398 2388 2359 2329 2310 2290 2260 2230 2215 2201 2181 2163 2155 2147 2141 2134 2122 2110 2102 2095 2088 2080 2070 2062 2055 2048 2040 2031 2021 2010 2000 1992 1987 1982 1976 1969 1965 1961 1956 1954 1953 1954 1951 1945 1940
1988 1990 1993 1994 1994 1992 1991 1992 1994 1998 2006 2011 2011 2010 2009 2009 2012 2015 2019 2024 2026 2028 2030 2033 2038 2041 2043 2044 2044 2044 2047 2050 2052 2055 2059 2061 2058 2056 2056 2057 2058 2059 2059 2061 2063 2065 2067 2070 2072 2074 2076 2076 2076 2077 2081 2087 2090 2092 2096 2101 2106 2112 2115 2117 2120 2123 2125 2130 2134 2136 2138 2139 2141 2142 2141 2139 2137 2135 2133 2131 2130 2128 2126 2126 2127 2126 2125 2124 2119 2114 2111 2109 2108 2105 2102 2099 2095 2092 2087 2085 2083 2082 2082 2083 2083 2085 2089 2097 2111 2121 2130 2136 2141 2160 2181 2198 2210 2226 2247 2269 2295 2313 2339 2380 2392 2405 2415 2415 2406 2364 2330 2309 2289 2261 2235 2215 2199 2184 2171 2161 2152 2146 2139 2131 2119 2107 2099 2092 2087 2080 2070 2060 2050 2041 2034 2028 2017 2007 1999 1993 1988 1984 1977 1970 1963 1957 1955 1953 1953 1952 1948 1943 1940
1976 1980 1983 1986 1986 1987 1986 1988 1989 1994 1999 2002 2003 2003 2002 2003 2008 2011 2013 2016 2018 2019 2022 2025 2032 2034 2034 2034 2035 2037 2040 2043 2045 2047 2046 2047 2048 2046 2046 2048 2052 2054 2057 2058 2060 2062 2063 2065 2066 2068 2069 2069 2071 2073 2076 2080 2082 2085 2091 2096 2102 2107 2109 2110 2115 2119 2122 2127 2131 2132 2132 2133 2134 2134 2132 2131 2128 2125 2123 2122 2121 2120 2120 2121 2120 2119 2119 2117 2113 2108 2106 2104 2102 2099 2096 2093 2090 2087 2083 2080 2077 2074 2074 2073 2076 2078 2086 2097 2114 2128 2135 2142 2158 2179 2192 2209 2220 2236 2255 2277 2287 2305 2328 2370 2424 2432 2431 2402 2358 2327 2302 2281 2261 2243 2223 2208 2194 2181 2169 2157 2146 2142 2136 2124 2112 2103 2094 2089 2083 2074 2064 2054 2045 2037 2031 2025 2017 2007 1998 1992 1987 1982 1976 1968 1962 1957 1953 1952 1950 1947 1944 1943 1939
1964 1968 1970 1973 1976 1977 1981 1982 1984 1988 1992 1995 1996 1996 1994 1997 2004 2008 2010 2011 2011 2012 2015 2020 2024 2026 2027 2027 2028 2028 2032 2038 2041 2040 2039 2039 2039 2040 2042 2043 2045 2049 2053 2054 2056 2059 2060 2060 2059 2060 2061 2063 2067 2070 2073 2076 2078 2082 2087 2096 2103 2106 2108 2106 2108 2114 2115 2118 2122 2124 2125 2125 2125 2124 2124 2121 2117 2116 2116 2115 2114 2113 2114 2114 2114 2114 2113 2111 2107 2105 2103 2101 2097 2094 2091 2089 2085 2080 2078 2077 2074 2071 2069 2070 2073 2077 2084 2096 2117 2135 2145 2154 2184 2202 2209 2222 2232 2246 2262 2273 2280 2293 2328 2345 2434 2445 2402 2361 2331 2298 2277 2261 2244 2229 2215 2202 2192 2181 2167 2152 2142 2136 2127 2118 2109 2101 2092 2082 2073 2063 2054 2048 2041 2034 2027 2022 2015 2003 1992 1988 1984 1979 1972 1966 1960 1956 1952 1948 1943 1940 1938 1937 1936
