ncols        157
nrows        121
xllcorner    12.0643055556
yllcorner    106.670138889
cellsize     30
1827 1821 1812 1802 1792 1781 1771 1763 1760 1757 1751 1745 1740 1736 1733 1730 1730 1729 1727 1723 1717 1714 1712 1710 1708 1704 1699 1689 1679 1666 1654 1641 1627 1616 1604 1590 1580 1568 1560 1555 1550 1542 1537 1533 1530 1526 1522 1518 1515 1513 1512 1508 1504 1500 1497 1495 1499 1507 1516 1524 1532 1537 1536 1531 1524 1517 1513 1510 1507 1504 1498 1494 1490 1488 1488 1491 1496 1500 1504 1506 1507 1510 1512 1513 1512 1512 1512 1512 1514 1517 1521 1529 1534 1539 1543 1546 1547 1549 1552 1556 1560 1564 1567 1569 1572 1575 1578 1579 1581 1585 1589 1592 1596 1601 1607 1611 1614 1618 1622 1628 1635 1640 1644 1645 1644 1645 1648 1654 1658 1662 1667 1671 1675 1678 1680 1687 1694 1700 1708 1715 1723 1729 1736 1742 1745 1751 1759 1768 1777 1788 1797 1802 1815 1830 1855 1882 1897
1839 1831 1820 1809 1800 1795 1789 1783 1777 1769 1763 1757 1752 1747 1746 1746 1748 1750 1747 1741 1738 1737 1738 1738 1730 1723 1712 1699 1680 1667 1656 1647 1635 1623 1612 1604 1594 1584 1576 1569 1562 1558 1551 1543 1538 1533 1529 1526 1521 1516 1512 1509 1503 1497 1492 1492 1495 1501 1513 1523 1531 1536 1536 1532 1526 1520 1515 1511 1508 1504 1500 1495 1491 1489 1488 1492 1497 1503 1507 1509 1509 1510 1510 1510 1509 1510 1512 1514 1515 1517 1519 1524 1531 1535 1540 1542 1543 1545 1549 1554 1558 1561 1564 1567 1569 1571 1573 1575 1578 1582 1586 1590 1593 1598 1603 1610 1616 1622 1628 1635 1642 1647 1648 1649 1649 1650 1652 1657 1662 1668 1672 1676 1678 1680 1685 1690 1697 1704 1712 1720 1725 1732 1741 1747 1748 1752 1761 1770 1780 1797 1809 1820 1832 1845 1865 1889 1908
1850 1846 1840 1832 1823 1812 1804 1800 1795 1785 1775 1767 1762 1760 1759 1760 1762 1764 1763 1763 1762 1764 1765 1758 1750 1740 1722 1702 1687 1675 1667 1659 1649 1641 1635 1630 1625 1613 1602 1597 1589 1580 1577 1570 1560 1549 1539 1536 1532 1525 1519 1515 1510 1502 1496 1495 1495 1501 1512 1522 1529 1531 1530 1529 1527 1522 1514 1508 1505 1502 1499 1496 1493 1492 1492 1493 1497 1502 1506 1510 1510 1508 1507 1506 1507 1510 1512 1513 1514 1515 1517 1519 1524 1530 1535 1537 1540 1543 1546 1549 1553 1556 1559 1561 1563 1566 1568 1572 1578 1581 1586 1592 1601 1607 1613 1621 1631 1640 1648 1654 1657 1659 1657 1657 1658 1659 1662 1664 1670 1677 1681 1684 1688 1693 1696 1699 1700 1704 1713 1723 1732 1738 1743 1747 1750 1756 1767 1779 1794 1810 1825 1838 1847 1862 1882 1899 1915
1866 1865 1864 1857 1844 1833 1829 1828 1819 1809 1800 1785 1773 1767 1766 1765 1765 1769 1773 1773 1772 1771 1770 1765 1757 1745 1729 1712 1698 1692 1685 1675 1667 1660 1653 1648 1645 1641 1636 1630 1622 1616 1605 1593 1581 1574 1569 1562 1552 1542 1534 1528 1522 1515 1510 1506 1507 1509 1515 1518 1520 1521 1521 1520 1521 1514 1507 1503 1502 1501 1499 1498 1497 1495 1494 1493 1495 1498 1503 1506 1507 1508 1507 1506 1507 1509 1511 1513 1515 1517 1519 1522 1524 1527 1532 1535 1537 1540 1543 1545 1549 1551 1554 1556 1558 1561 1565 1572 1580 1586 1592 1600 1609 1619 1626 1631 1638 1647 1654 1659 1663 1661 1660 1658 1658 1659 1663 1666 1671 1675 1680 1686 1692 1698 1703 1708 1713 1716 1721 1728 1735 1743 1750 1752 1758 1768 1776 1784 1792 1807 1830 1847 1862 1879 1894 1911 1926
1883 1884 1884 1879 1871 1871 1868 1855 1840 1827 1810 1791 1778 1769 1768 1769 1769 1772 1775 1777 1775 1771 1768 1764 1758 1749 1733 1720 1712 1707 1702 1696 1688 1680 1670 1664 1660 1656 1651 1645 1636 1624 1615 1607 1602 1596 1589 1582 1572 1561 1551 1542 1536 1530 1526 1521 1521 1519 1517 1515 1515 1515 1514 1514 1511 1506 1503 1502 1501 1502 1502 1501 1500 1497 1495 1492 1493 1496 1500 1503 1505 1508 1508 1508 1508 1509 1511 1515 1517 1519 1521 1522 1523 1525 1529 1532 1534 1537 1540 1543 1546 1550 1553 1555 1557 1559 1563 1570 1581 1589 1594 1598 1605 1613 1621 1628 1628 1631 1641 1653 1656 1657 1654 1652 1654 1658 1662 1666 1671 1676 1681 1686 1692 1698 1703 1709 1716 1723 1730 1734 1738 1746 1754 1757 1761 1770 1778 1783 1796 1819 1842 1866 1881 1891 1905 1921 1943
1900 1902 1902 1902 1901 1900 1900 1918 1925 1936 1923 1887 1853 1785 1770 1771 1772 1775 1778 1785 1783 1776 1767 1759 1752 1742 1731 1723 1718 1714 1712 1708 1704 1697 1691 1684 1678 1672 1668 1659 1649 1637 1625 1616 1611 1603 1598 1594 1586 1580 1574 1564 1558 1549 1544 1541 1539 1538 1531 1528 1521 1517 1515 1514 1509 1504 1500 1500 1500 1502 1505 1506 1504 1499 1494 1492 1492 1495 1498 1501 1506 1509 1511 1511 1512 1512 1514 1517 1520 1520 1520 1521 1523 1524 1527 1530 1533 1536 1539 1542 1544 1547 1550 1553 1555 1557 1564 1573 1580 1587 1590 1593 1597 1603 1609 1615 1616 1619 1623 1631 1635 1635 1634 1636 1645 1653 1661 1668 1674 1679 1684 1689 1695 1701 1707 1714 1724 1733 1739 1743 1747 1753 1757 1761 1769 1784 1795 1804 1820 1842 1865 1878 1887 1900 1916 1941 1964
1920 1922 1927 1932 1927 1924 1926 1937 1967 1993 1996 1990 1914 1892 1880 1849 1843 1831 1810 1790 1789 1777 1763 1757 1751 1743 1734 1726 1719 1716 1713 1710 1706 1700 1697 1694 1689 1682 1674 1667 1656 1643 1631 1619 1606 1598 1598 1597 1596 1594 1590 1583 1572 1567 1562 1559 1559 1556 1552 1545 1536 1526 1521 1518 1513 1507 1504 1501 1501 1504 1508 1511 1509 1502 1497 1495 1494 1494 1495 1498 1505 1510 1512 1514 1515 1516 1518 1520 1520 1521 1522 1523 1525 1528 1530 1531 1533 1537 1540 1542 1544 1546 1548 1550 1554 1561 1568 1575 1580 1584 1588 1590 1592 1596 1600 1604 1607 1610 1613 1618 1620 1620 1626 1636 1648 1658 1667 1673 1679 1685 1690 1695 1701 1707 1714 1720 1730 1740 1747 1752 1760 1766 1769 1774 1783 1794 1809 1824 1838 1853 1869 1885 1898 1913 1934 1954 1974
1937 1946 1955 1958 1961 1971 1982 1991 2001 2005 2006 2007 1956 1936 1910 1896 1872 1860 1833 1794 1785 1775 1764 1757 1751 1743 1732 1723 1719 1715 1712 1708 1702 1697 1692 1689 1685 1677 1669 1663 1654 1643 1628 1612 1601 1596 1597 1599 1598 1598 1593 1587 1582 1576 1574 1572 1569 1566 1561 1554 1543 1534 1529 1524 1519 1514 1509 1505 1505 1509 1512 1515 1514 1509 1502 1499 1497 1494 1495 1498 1503 1507 1510 1512 1515 1517 1518 1519 1521 1523 1525 1527 1530 1533 1533 1535 1537 1539 1542 1545 1546 1548 1551 1554 1559 1565 1573 1576 1578 1580 1585 1589 1590 1591 1594 1599 1602 1607 1611 1616 1620 1628 1635 1645 1657 1670 1681 1687 1692 1696 1701 1706 1712 1720 1726 1731 1738 1747 1756 1764 1771 1779 1784 1787 1793 1806 1819 1834 1845 1857 1876 1895 1907 1922 1939 1958 1975
1959 1965 1971 1982 1994 1998 2000 2006 2015 2016 2015 2008 1979 1961 1944 1922 1909 1883 1837 1798 1796 1786 1778 1769 1758 1747 1737 1729 1721 1715 1711 1705 1697 1690 1686 1681 1676 1669 1661 1654 1647 1635 1619 1608 1601 1598 1597 1598 1597 1596 1593 1590 1587 1586 1585 1583 1580 1575 1569 1560 1551 1544 1538 1533 1528 1522 1515 1511 1510 1514 1518 1521 1518 1513 1506 1501 1497 1495 1496 1497 1501 1504 1507 1511 1514 1516 1517 1518 1521 1523 1525 1528 1533 1535 1538 1540 1541 1543 1546 1548 1551 1553 1556 1560 1564 1568 1571 1573 1575 1578 1582 1585 1588 1591 1593 1595 1601 1608 1614 1622 1632 1642 1649 1657 1668 1680 1691 1697 1702 1708 1714 1719 1726 1733 1738 1742 1747 1755 1765 1774 1782 1790 1795 1801 1809 1819 1830 1838 1848 1864 1879 1895 1908 1915 1926 1946 1963
1979 1983 1991 2003 2011 2016 2021 2027 2041 2052 2064 2005 2003 1989 1974 1963 1935 1907 1882 1827 1801 1797 1791 1784 1772 1761 1750 1738 1726 1716 1709 1701 1694 1686 1681 1675 1669 1664 1658 1651 1638 1626 1619 1611 1605 1601 1598 1598 1598 1595 1591 1590 1590 1590 1589 1586 1584 1582 1577 1571 1563 1553 1546 1540 1534 1527 1521 1517 1519 1523 1527 1529 1527 1520 1511 1504 1499 1495 1495 1496 1500 1505 1508 1511 1513 1514 1514 1516 1520 1523 1525 1528 1532 1536 1541 1543 1545 1545 1546 1550 1553 1555 1558 1561 1564 1567 1569 1571 1574 1579 1584 1586 1592 1599 1605 1609 1615 1621 1626 1633 1641 1648 1656 1665 1675 1684 1693 1700 1708 1717 1724 1730 1736 1743 1749 1755 1762 1771 1779 1788 1800 1809 1814 1818 1830 1841 1845 1850 1857 1864 1879 1896 1907 1918 1932 1944 1958
1996 2000 2007 2017 2030 2040 2049 2069 2088 2101 2107 2048 2029 2008 1988 1975 1962 1920 1882 1849 1819 1807 1796 1791 1780 1766 1750 1736 1724 1714 1705 1697 1690 1683 1676 1670 1667 1665 1662 1653 1642 1629 1619 1612 1609 1605 1603 1602 1598 1594 1591 1590 1591 1591 1589 1587 1586 1585 1582 1578 1571 1564 1555 1548 1540 1532 1526 1522 1521 1527 1531 1533 1533 1524 1516 1506 1501 1497 1498 1500 1504 1508 1507 1507 1508 1510 1512 1515 1519 1523 1526 1528 1531 1535 1539 1542 1544 1545 1546 1550 1554 1557 1560 1562 1564 1565 1566 1571 1575 1582 1588 1590 1594 1604 1613 1619 1625 1632 1640 1647 1652 1658 1664 1671 1679 1688 1696 1704 1713 1726 1739 1749 1756 1759 1765 1773 1781 1785 1792 1802 1813 1820 1828 1837 1846 1855 1864 1872 1880 1885 1895 1905 1921 1935 1942 1952 1970
2010 2016 2024 2045 2074 2094 2101 2107 2112 2117 2121 2091 2069 2033 2003 1987 1969 1924 1891 1856 1829 1808 1791 1790 1760 1742 1737 1728 1721 1714 1705 1696 1685 1678 1672 1667 1663 1662 1660 1653 1641 1630 1619 1615 1611 1608 1604 1601 1598 1595 1592 1592 1591 1588 1587 1584 1585 1584 1582 1577 1572 1566 1559 1552 1545 1537 1528 1522 1521 1525 1529 1536 1539 1535 1525 1516 1509 1505 1503 1502 1504 1505 1505 1504 1505 1508 1511 1515 1518 1521 1523 1524 1527 1531 1534 1537 1539 1541 1546 1551 1554 1557 1559 1561 1561 1563 1565 1568 1575 1583 1590 1597 1605 1613 1622 1633 1644 1656 1667 1670 1670 1671 1672 1679 1686 1693 1699 1705 1726 1749 1760 1766 1767 1770 1778 1785 1793 1800 1811 1822 1830 1837 1844 1851 1857 1866 1876 1882 1888 1896 1907 1921 1938 1949 1955 1965 1979
2036 2041 2058 2083 2106 2121 2134 2144 2151 2152 2151 2103 2076 2050 2020 1992 1978 1936 1904 1874 1848 1830 1797 1775 1737 1743 1734 1727 1721 1713 1705 1696 1686 1676 1669 1664 1660 1658 1655 1650 1637 1626 1620 1616 1612 1607 1604 1601 1598 1595 1595 1594 1591 1588 1586 1585 1581 1580 1578 1574 1569 1564 1557 1552 1545 1537 1528 1522 1520 1522 1526 1535 1542 1539 1535 1525 1516 1509 1504 1504 1504 1505 1504 1504 1505 1509 1512 1515 1518 1519 1520 1522 1524 1528 1532 1535 1539 1542 1545 1549 1552 1553 1554 1554 1555 1557 1563 1568 1576 1584 1594 1603 1615 1628 1640 1653 1668 1682 1687 1688 1684 1679 1679 1688 1694 1696 1700 1723 1748 1758 1764 1770 1776 1783 1790 1801 1812 1824 1833 1841 1846 1852 1859 1867 1875 1883 1887 1897 1907 1914 1923 1942 1962 1965 1970 1979 1987
2079 2098 2114 2129 2149 2160 2165 2182 2186 2191 2133 2101 2079 2059 2040 2024 1990 1953 1921 1883 1859 1835 1806 1754 1750 1748 1739 1729 1721 1713 1705 1696 1687 1677 1669 1664 1659 1656 1650 1642 1634 1628 1623 1617 1612 1608 1604 1601 1597 1595 1596 1597 1596 1594 1593 1588 1583 1578 1577 1575 1573 1567 1560 1553 1545 1537 1528 1522 1518 1519 1521 1530 1536 1535 1532 1527 1518 1510 1506 1505 1505 1504 1504 1504 1506 1510 1514 1516 1517 1519 1519 1521 1524 1528 1531 1536 1540 1543 1546 1547 1548 1547 1547 1549 1551 1556 1564 1575 1587 1597 1606 1619 1641 1671 1693 1708 1714 1715 1715 1714 1711 1717 1727 1738 1740 1747 1770 1780 1790 1818 1824 1829 1804 1806 1814 1825 1835 1843 1851 1856 1864 1880 1891 1898 1908 1915 1923 1936 1942 1946 1955 1965 1975 1985 1994 2001 2013
2107 2114 2155 2188 2190 2195 2212 2218 2195 2187 2161 2140 2091 2068 2061 2039 2022 1990 1941 1909 1876 1847 1808 1785 1765 1763 1754 1743 1727 1712 1701 1694 1687 1679 1672 1665 1658 1651 1644 1638 1633 1629 1625 1619 1612 1608 1603 1599 1596 1594 1595 1598 1599 1599 1596 1592 1585 1579 1578 1577 1576 1572 1567 1560 1550 1539 1534 1526 1522 1518 1517 1520 1524 1526 1523 1520 1511 1505 1503 1503 1502 1503 1502 1502 1504 1508 1513 1516 1517 1518 1520 1522 1526 1530 1535 1538 1540 1541 1541 1543 1543 1544 1546 1548 1553 1567 1584 1607 1631 1635 1639 1670 1704 1725 1742 1741 1739 1741 1746 1749 1760 1784 1800 1812 1829 1850 1861 1872 1885 1900 1909 1914 1880 1853 1869 1886 1891 1895 1893 1897 1906 1913 1924 1939 1954 1961 1967 1971 1969 1972 1978 1987 1997 2009 2020 2030 2034
2160 2184 2217 2240 2263 2274 2259 2265 2270 2222 2203 2176 2123 2115 2101 2061 2032 2024 1969 1906 1880 1861 1838 1816 1777 1784 1777 1746 1722 1705 1698 1693 1687 1681 1674 1668 1660 1652 1646 1639 1635 1631 1626 1620 1614 1608 1603 1599 1595 1595 1596 1598 1600 1598 1595 1590 1584 1580 1579 1581 1580 1577 1573 1567 1558 1548 1541 1535 1528 1521 1514 1510 1510 1512 1512 1510 1507 1505 1503 1502 1502 1501 1501 1501 1503 1507 1511 1514 1515 1517 1521 1525 1528 1533 1536 1537 1538 1538 1537 1537 1540 1543 1550 1558 1569 1580 1603 1628 1653 1674 1696 1716 1729 1742 1749 1754 1757 1761 1767 1781 1803 1819 1832 1847 1861 1871 1882 1896 1910 1920 1928 1933 1938 1942 1942 1939 1930 1923 1928 1937 1944 1950 1962 1977 1986 1992 1990 1985 1985 1991 1998 2005 2017 2033 2046 2050 2053
2213 2235 2260 2272 2283 2288 2296 2275 2271 2257 2215 2187 2163 2140 2111 2099 2052 2023 1982 1943 1888 1872 1850 1847 1822 1809 1786 1753 1719 1708 1702 1695 1688 1683 1678 1671 1665 1661 1657 1652 1644 1637 1629 1620 1614 1609 1604 1599 1597 1595 1597 1597 1598 1594 1590 1587 1585 1582 1584 1585 1585 1581 1577 1569 1562 1554 1548 1540 1533 1526 1518 1509 1504 1503 1503 1506 1508 1508 1507 1505 1503 1502 1501 1502 1505 1509 1512 1513 1515 1519 1523 1526 1530 1532 1532 1531 1531 1535 1540 1543 1548 1559 1570 1582 1592 1604 1627 1661 1691 1712 1729 1742 1750 1757 1763 1769 1779 1789 1805 1825 1833 1841 1857 1873 1883 1896 1912 1922 1929 1940 1953 1958 1960 1961 1965 1965 1958 1951 1954 1961 1972 1989 1997 2000 2005 2004 2002 2005 2009 2015 2022 2033 2047 2061 2069 2067 2065
2260 2273 2281 2292 2299 2303 2296 2299 2279 2256 2248 2209 2175 2153 2138 2102 2081 2052 2005 1954 1905 1893 1873 1858 1844 1822 1788 1755 1738 1726 1715 1706 1697 1691 1688 1680 1673 1669 1666 1659 1651 1641 1628 1621 1615 1610 1605 1601 1598 1596 1594 1593 1590 1588 1585 1583 1583 1582 1580 1582 1582 1578 1574 1568 1561 1554 1548 1542 1534 1528 1523 1513 1504 1500 1502 1506 1509 1511 1509 1506 1504 1503 1503 1505 1507 1510 1511 1513 1516 1520 1523 1525 1527 1529 1529 1529 1532 1538 1545 1554 1564 1577 1591 1608 1627 1639 1650 1679 1712 1727 1741 1752 1763 1770 1776 1787 1800 1815 1829 1839 1849 1862 1877 1891 1907 1924 1937 1947 1954 1962 1972 1979 1981 1985 1995 1998 1996 1990 1993 1999 2013 2026 2027 2028 2025 2022 2024 2026 2028 2033 2039 2048 2067 2084 2087 2088 2088
2283 2289 2296 2303 2313 2324 2321 2309 2302 2283 2256 2235 2193 2158 2151 2141 2097 2046 2003 1955 1913 1896 1885 1868 1852 1823 1810 1798 1786 1760 1737 1726 1719 1712 1703 1692 1685 1678 1671 1664 1656 1647 1636 1627 1621 1616 1611 1607 1603 1598 1594 1587 1585 1583 1580 1579 1576 1572 1572 1574 1573 1572 1566 1563 1556 1549 1543 1539 1536 1534 1527 1518 1507 1502 1503 1507 1509 1511 1510 1507 1504 1503 1505 1505 1506 1508 1509 1512 1516 1520 1523 1524 1525 1527 1534 1541 1547 1554 1562 1571 1582 1593 1608 1625 1648 1668 1692 1721 1735 1743 1753 1763 1771 1783 1795 1806 1816 1829 1842 1854 1866 1882 1899 1913 1928 1945 1958 1966 1974 1985 1993 1996 2000 2010 2018 2026 2029 2029 2033 2039 2042 2044 2043 2042 2042 2042 2044 2049 2053 2057 2062 2073 2087 2098 2100 2095 2093
2297 2314 2325 2338 2349 2354 2357 2342 2324 2301 2266 2239 2227 2175 2157 2137 2125 2049 1997 1925 1907 1893 1875 1869 1866 1858 1833 1824 1809 1790 1760 1736 1727 1723 1715 1707 1697 1690 1684 1681 1675 1666 1651 1638 1631 1626 1618 1615 1606 1602 1595 1588 1582 1581 1577 1572 1567 1564 1561 1561 1560 1559 1558 1553 1549 1542 1539 1536 1534 1533 1527 1516 1509 1503 1500 1502 1504 1506 1505 1503 1502 1502 1503 1503 1503 1505 1508 1510 1514 1517 1519 1522 1525 1529 1539 1550 1560 1570 1578 1588 1601 1615 1634 1661 1683 1699 1714 1731 1749 1765 1772 1775 1785 1797 1810 1821 1834 1847 1861 1876 1885 1895 1913 1934 1951 1962 1971 1980 1989 1999 2008 2015 2022 2029 2036 2042 2046 2050 2054 2057 2063 2067 2068 2074 2078 2076 2075 2076 2079 2081 2083 2091 2099 2106 2111 2108 2103
2328 2342 2354 2363 2370 2367 2361 2347 2342 2305 2295 2258 2228 2189 2167 2139 2119 2066 1990 1910 1909 1903 1890 1886 1882 1869 1865 1860 1848 1833 1822 1802 1791 1730 1725 1720 1710 1705 1695 1695 1692 1679 1684 1678 1685 1684 1684 1674 1657 1647 1608 1598 1589 1585 1581 1570 1560 1558 1555 1552 1549 1552 1550 1550 1544 1538 1535 1534 1532 1526 1518 1513 1510 1504 1499 1498 1498 1499 1499 1498 1497 1499 1500 1501 1502 1503 1505 1508 1511 1515 1518 1523 1528 1535 1542 1552 1563 1574 1583 1600 1617 1645 1673 1702 1726 1737 1742 1750 1762 1774 1783 1791 1799 1811 1824 1836 1851 1867 1882 1894 1907 1921 1936 1953 1963 1973 1982 1993 2005 2016 2024 2032 2040 2048 2057 2064 2068 2071 2075 2078 2080 2080 2079 2077 2074 2075 2079 2083 2083 2085 2085 2085 2088 2097 2102 2099 2087
2360 2370 2378 2385 2379 2370 2351 2344 2335 2308 2293 2257 2238 2202 2177 2141 2106 2059 1983 1912 1906 1903 1902 1900 1898 1894 1899 1894 1885 1876 1859 1840 1828 1814 1809 1798 1788 1766 1758 1751 1748 1732 1721 1715 1713 1713 1712 1707 1701 1689 1676 1663 1656 1634 1619 1598 1594 1581 1557 1551 1552 1550 1556 1551 1543 1538 1537 1535 1529 1522 1516 1510 1505 1500 1498 1496 1495 1493 1492 1492 1493 1494 1496 1498 1499 1501 1502 1505 1511 1515 1516 1520 1527 1532 1538 1545 1554 1575 1606 1629 1659 1683 1705 1728 1746 1755 1760 1768 1775 1788 1801 1810 1819 1831 1841 1851 1862 1882 1904 1919 1931 1943 1956 1967 1978 1988 1999 2010 2022 2032 2042 2051 2058 2066 2073 2077 2080 2083 2084 2082 2082 2080 2074 2067 2066 2066 2070 2071 2072 2074 2076 2078 2079 2080 2078 2074 2066
2386 2386 2392 2398 2389 2371 2357 2350 2329 2296 2265 2252 2243 2226 2175 2126 2089 2045 1948 1922 1912 1911 1913 1918 1925 1919 1919 1922 1917 1906 1901 1884 1868 1862 1848 1837 1832 1830 1814 1780 1771 1761 1756 1756 1748 1744 1742 1736 1726 1722 1707 1698 1691 1690 1674 1647 1609 1595 1590 1567 1559 1562 1556 1546 1542 1541 1540 1535 1529 1521 1513 1502 1497 1495 1494 1493 1492 1489 1488 1488 1489 1490 1491 1493 1495 1497 1499 1503 1508 1512 1515 1516 1527 1540 1548 1554 1577 1608 1637 1665 1687 1708 1722 1736 1747 1760 1774 1782 1790 1803 1815 1828 1834 1844 1857 1868 1881 1901 1918 1933 1950 1961 1968 1977 1990 2000 2009 2020 2031 2043 2054 2066 2077 2082 2085 2090 2093 2091 2088 2083 2077 2068 2060 2055 2056 2054 2049 2051 2055 2058 2038 2039 2043 2054 2047 2046 2047
2400 2399 2403 2396 2381 2364 2349 2313 2302 2265 2259 2246 2239 2231 2182 2124 2091 2042 1948 1933 1920 1913 1916 1923 1940 1961 1961 1948 1946 1938 1926 1911 1893 1893 1884 1879 1867 1870 1844 1832 1812 1792 1784 1772 1774 1774 1763 1760 1753 1744 1743 1732 1729 1727 1713 1693 1667 1643 1623 1606 1589 1563 1552 1551 1541 1545 1541 1535 1526 1520 1512 1501 1494 1492 1492 1491 1490 1489 1487 1487 1488 1489 1490 1491 1493 1495 1498 1502 1506 1511 1514 1528 1545 1559 1566 1574 1602 1628 1650 1676 1693 1715 1733 1747 1757 1772 1785 1794 1803 1814 1823 1831 1846 1861 1875 1891 1904 1919 1935 1957 1966 1971 1979 1985 2001 2015 2026 2037 2046 2054 2067 2081 2088 2092 2096 2101 2104 2102 2093 2083 2072 2061 2046 2039 2043 2034 2030 2032 2035 2024 2021 2019 2019 2017 2020 2020 2015
2410 2405 2395 2386 2376 2363 2354 2291 2273 2238 2239 2234 2227 2211 2180 2158 2103 2056 1985 1977 1990 1983 1956 1964 1987 1997 1996 1989 1976 1974 1953 1937 1928 1919 1917 1922 1922 1899 1879 1867 1853 1839 1816 1805 1799 1796 1796 1789 1790 1792 1780 1775 1765 1760 1749 1734 1709 1695 1680 1645 1624 1613 1577 1574 1577 1559 1552 1536 1527 1518 1508 1500 1495 1492 1490 1490 1490 1490 1490 1490 1490 1490 1490 1489 1491 1494 1499 1504 1509 1513 1521 1531 1547 1559 1570 1592 1611 1644 1671 1693 1714 1732 1749 1758 1783 1787 1811 1809 1817 1831 1843 1852 1861 1886 1909 1921 1928 1942 1954 1964 1975 1984 1991 2003 2017 2027 2041 2055 2064 2074 2081 2086 2093 2100 2106 2111 2114 2116 2103 2083 2067 2053 2038 2022 2017 2007 2008 2003 1998 2004 1996 1996 1988 1983 1982 1961 1933
2387 2367 2359 2363 2354 2314 2275 2248 2234 2226 2228 2223 2203 2194 2174 2155 2116 2075 2052 2043 2037 2035 2027 2037 2049 2063 2023 2014 2009 1996 1977 1962 1956 1958 1945 1953 1957 1969 1954 1920 1887 1871 1852 1851 1840 1842 1831 1821 1819 1805 1806 1807 1805 1792 1781 1760 1747 1735 1720 1693 1657 1639 1628 1623 1601 1589 1563 1540 1526 1519 1513 1506 1501 1495 1492 1490 1490 1489 1489 1489 1489 1489 1490 1489 1491 1494 1498 1504 1511 1515 1521 1530 1537 1552 1570 1593 1616 1650 1676 1704 1727 1747 1758 1776 1787 1806 1817 1829 1848 1856 1883 1893 1898 1914 1929 1941 1952 1962 1972 1979 1985 1995 2008 2022 2035 2042 2049 2059 2071 2077 2081 2086 2092 2099 2106 2109 2110 2109 2110 2101 2069 2037 2016 1997 1983 1984 1979 1980 1985 1988 1984 1982 1965 1948 1931 1921 1909
2364 2349 2340 2334 2308 2277 2249 2224 2188 2191 2192 2194 2185 2167 2156 2144 2124 2099 2069 2083 2085 2075 2080 2102 2114 2116 2064 2050 2038 2026 2009 1993 1978 1978 2001 2004 2005 2002 1985 1971 1943 1916 1886 1883 1887 1885 1874 1860 1846 1837 1850 1840 1834 1818 1811 1793 1776 1768 1756 1736 1719 1694 1681 1654 1633 1606 1579 1562 1556 1530 1521 1516 1509 1499 1492 1489 1489 1489 1489 1489 1489 1489 1490 1490 1489 1491 1494 1500 1512 1518 1522 1525 1531 1546 1559 1595 1621 1661 1690 1720 1742 1759 1774 1783 1799 1804 1818 1843 1863 1886 1909 1910 1917 1932 1945 1953 1961 1970 1979 1988 1997 2008 2023 2040 2050 2055 2060 2068 2071 2075 2068 2066 2067 2062 2059 2095 2101 2099 2094 2071 2043 2011 1978 1974 1959 1950 1953 1958 1973 1971 1966 1951 1940 1924 1908 1896 1886
2339 2329 2317 2301 2280 2243 2217 2182 2171 2166 2157 2154 2144 2134 2133 2136 2139 2129 2116 2099 2102 2108 2116 2124 2135 2131 2103 2076 2067 2036 2054 2040 2025 2016 2011 2018 2029 2036 2034 2042 1978 1953 1945 1928 1914 1914 1901 1885 1884 1883 1870 1880 1875 1874 1855 1837 1818 1794 1782 1760 1743 1719 1703 1690 1667 1623 1597 1574 1557 1544 1531 1523 1519 1508 1494 1489 1489 1489 1489 1489 1489 1489 1489 1490 1488 1488 1489 1499 1511 1520 1522 1530 1536 1550 1563 1591 1626 1661 1701 1721 1753 1768 1778 1792 1796 1800 1825 1849 1866 1897 1901 1906 1920 1929 1940 1952 1963 1971 1981 1997 2008 2019 2031 2045 2056 2064 2066 2065 2063 2062 2065 2060 2057 2054 2057 2078 2079 2083 2066 2053 2024 1934 1925 1947 1930 1927 1933 1941 1943 1950 1942 1933 1915 1902 1898 1886 1876
2316 2306 2291 2270 2258 2210 2185 2169 2154 2125 2137 2136 2122 2115 2130 2136 2141 2138 2133 2140 2141 2144 2149 2148 2142 2136 2132 2123 2105 2091 2063 2034 2026 2023 2024 2034 2043 2049 2050 2035 2015 2002 1971 1971 1960 1948 1934 1932 1927 1919 1866 1886 1898 1904 1898 1876 1854 1829 1817 1791 1779 1750 1725 1705 1690 1663 1626 1603 1578 1544 1521 1548 1522 1512 1501 1489 1489 1489 1489 1489 1489 1489 1489 1490 1490 1485 1490 1501 1514 1524 1531 1543 1547 1562 1584 1623 1646 1668 1699 1722 1747 1762 1779 1797 1797 1817 1835 1876 1887 1893 1900 1907 1913 1924 1929 1944 1960 1969 1976 1990 2008 2022 2034 2045 2052 2056 2056 2056 2060 2063 2058 2054 2051 2052 2050 2049 2063 2063 2047 2028 2001 1984 1928 1916 1919 1910 1911 1908 1902 1902 1898 1894 1894 1889 1870 1858 1845
2296 2285 2275 2264 2232 2208 2138 2121 2127 2132 2122 2099 2086 2113 2123 2144 2146 2150 2156 2157 2178 2173 2163 2159 2152 2142 2141 2135 2131 2126 2100 2066 2046 2038 2041 2047 2054 2057 2045 2035 2025 2014 1997 1986 2002 1993 1975 1964 1958 1961 1976 1967 1936 1921 1923 1895 1881 1857 1827 1814 1806 1782 1752 1720 1706 1691 1654 1629 1597 1551 1529 1521 1509 1501 1490 1489 1489 1489 1489 1489 1489 1489 1489 1489 1490 1488 1492 1503 1514 1523 1535 1549 1552 1563 1589 1612 1640 1656 1672 1703 1738 1762 1778 1789 1815 1822 1852 1871 1879 1888 1896 1901 1906 1914 1925 1938 1964 1972 1968 1988 2004 2021 2033 2038 2046 2043 2046 2035 2022 2014 2022 2021 2019 2016 2012 2020 2031 2029 2022 1998 1968 1965 1935 1915 1897 1892 1892 1894 1891 1876 1862 1864 1858 1848 1830 1833 1800
2279 2267 2261 2248 2233 2208 2176 2166 2171 2156 2130 2110 2092 2128 2136 2146 2154 2165 2167 2181 2179 2168 2158 2152 2146 2142 2139 2141 2133 2110 2087 2063 2053 2059 2064 2066 2068 2073 2061 2038 2034 2032 2012 2013 2007 1992 1975 1973 1977 1984 1978 1962 1936 1922 1925 1914 1903 1884 1855 1833 1820 1803 1773 1743 1720 1698 1662 1641 1607 1569 1532 1508 1507 1491 1489 1489 1489 1489 1489 1489 1489 1489 1489 1490 1490 1491 1493 1497 1509 1524 1536 1550 1550 1564 1586 1597 1601 1637 1670 1672 1716 1758 1775 1792 1809 1829 1850 1863 1869 1875 1888 1896 1900 1911 1922 1931 1951 1970 1976 1986 2006 2016 2019 2020 2039 2039 2019 2009 2008 1990 1992 1995 1990 1993 1993 1992 1993 1995 1985 1972 1953 1935 1924 1906 1886 1875 1872 1866 1855 1849 1849 1842 1828 1813 1798 1788 1780
2255 2239 2238 2230 2213 2194 2187 2182 2168 2152 2135 2120 2119 2116 2136 2151 2154 2158 2159 2166 2153 2146 2138 2131 2127 2128 2130 2128 2114 2094 2075 2068 2066 2069 2073 2076 2078 2070 2060 2053 2049 2040 2026 2014 2003 1993 1981 1979 1976 1971 1959 1935 1920 1920 1918 1917 1909 1884 1872 1855 1834 1815 1791 1764 1747 1717 1676 1657 1614 1572 1534 1510 1499 1490 1489 1489 1489 1489 1489 1489 1489 1489 1489 1490 1492 1493 1493 1496 1510 1527 1541 1555 1560 1567 1585 1597 1609 1624 1668 1680 1713 1747 1766 1790 1776 1819 1845 1855 1856 1863 1881 1894 1901 1909 1916 1928 1945 1962 1971 1986 1995 1995 1999 2010 2018 2015 2001 1994 1985 1983 1977 1975 1973 1969 1959 1962 1954 1951 1942 1938 1930 1915 1897 1871 1851 1848 1842 1828 1822 1822 1814 1801 1789 1776 1768 1759 1754
2230 2223 2217 2210 2199 2192 2188 2180 2166 2152 2142 2134 2130 2128 2140 2143 2142 2143 2132 2124 2126 2125 2120 2115 2114 2111 2096 2086 2083 2080 2073 2068 2068 2069 2071 2068 2058 2051 2044 2041 2038 2032 2019 2006 1996 1990 1981 1971 1965 1953 1939 1931 1922 1910 1904 1902 1895 1890 1875 1866 1857 1832 1813 1792 1765 1741 1716 1676 1617 1561 1536 1505 1499 1492 1489 1489 1489 1489 1489 1489 1489 1489 1491 1490 1492 1495 1497 1503 1515 1529 1544 1562 1567 1574 1587 1603 1616 1636 1658 1680 1710 1745 1772 1749 1783 1823 1847 1850 1848 1854 1873 1897 1912 1917 1920 1928 1938 1949 1959 1967 1977 1982 1987 1983 1981 1985 1976 1975 1973 1970 1956 1943 1935 1938 1932 1928 1927 1926 1926 1914 1892 1890 1872 1850 1829 1810 1801 1797 1793 1791 1784 1771 1761 1754 1746 1738 1733
2218 2210 2202 2195 2189 2184 2180 2172 2160 2150 2141 2135 2124 2118 2112 2115 2109 2102 2094 2097 2102 2101 2098 2092 2087 2092 2092 2074 2066 2062 2055 2052 2053 2055 2052 2045 2042 2040 2029 2022 2016 2010 2000 1989 1985 1980 1971 1960 1943 1929 1922 1915 1905 1896 1890 1887 1888 1894 1881 1869 1857 1836 1817 1799 1778 1749 1723 1673 1609 1536 1524 1507 1493 1495 1489 1489 1489 1489 1489 1489 1489 1489 1489 1490 1491 1494 1502 1512 1518 1529 1543 1559 1571 1578 1588 1601 1616 1630 1647 1666 1712 1722 1752 1777 1788 1827 1848 1847 1838 1841 1867 1917 1922 1921 1925 1922 1930 1938 1949 1954 1963 1953 1945 1942 1943 1941 1941 1941 1938 1926 1918 1909 1906 1911 1908 1910 1910 1898 1888 1870 1854 1843 1826 1835 1816 1802 1787 1779 1777 1774 1770 1761 1747 1736 1729 1719 1710
2199 2193 2187 2182 2176 2172 2167 2159 2148 2139 2133 2124 2114 2107 2103 2095 2090 2086 2081 2080 2081 2075 2068 2066 2062 2056 2051 2055 2056 2048 2042 2039 2037 2034 2030 2025 2022 2023 2020 2007 1991 1983 1979 1977 1974 1965 1953 1938 1928 1921 1912 1903 1888 1875 1871 1872 1878 1878 1875 1865 1846 1834 1818 1796 1779 1755 1725 1663 1610 1542 1511 1501 1489 1490 1492 1489 1489 1489 1489 1489 1489 1489 1489 1489 1490 1494 1502 1512 1519 1528 1540 1557 1569 1576 1590 1603 1617 1625 1631 1655 1713 1733 1733 1759 1785 1799 1831 1822 1811 1815 1829 1883 1912 1907 1914 1909 1908 1916 1927 1920 1919 1912 1911 1909 1902 1896 1892 1895 1883 1885 1883 1883 1878 1887 1889 1881 1871 1855 1838 1826 1822 1809 1793 1779 1781 1772 1771 1767 1761 1756 1749 1739 1725 1713 1704 1698 1697
2184 2179 2175 2170 2166 2160 2149 2139 2132 2125 2117 2110 2101 2094 2090 2087 2081 2077 2073 2068 2061 2055 2051 2050 2047 2044 2042 2041 2037 2032 2030 2026 2022 2015 2007 2002 2001 1999 1994 1988 1976 1966 1961 1959 1957 1948 1939 1933 1923 1916 1909 1886 1866 1860 1856 1853 1852 1853 1841 1840 1838 1821 1800 1783 1768 1752 1728 1659 1608 1534 1510 1493 1485 1486 1490 1489 1489 1489 1489 1489 1489 1489 1489 1489 1489 1492 1499 1510 1518 1527 1541 1554 1565 1571 1584 1602 1610 1619 1618 1618 1647 1722 1734 1747 1769 1778 1797 1798 1798 1795 1799 1807 1859 1883 1896 1895 1887 1882 1885 1889 1881 1874 1870 1867 1863 1853 1847 1855 1848 1843 1841 1857 1858 1845 1846 1840 1840 1832 1831 1826 1807 1786 1769 1748 1747 1749 1748 1743 1736 1724 1714 1702 1696 1689 1684 1684 1680
2175 2172 2166 2159 2152 2144 2135 2130 2125 2115 2107 2102 2095 2091 2087 2084 2081 2076 2070 2062 2054 2048 2045 2043 2042 2038 2034 2031 2024 2017 2012 2010 2004 1997 1991 1986 1977 1970 1971 1970 1959 1949 1947 1942 1934 1927 1925 1918 1912 1906 1894 1874 1855 1837 1832 1834 1827 1825 1821 1802 1806 1788 1782 1769 1758 1732 1703 1679 1609 1564 1505 1490 1487 1487 1490 1491 1489 1489 1489 1489 1489 1489 1489 1489 1489 1489 1497 1505 1513 1523 1532 1547 1559 1567 1577 1590 1601 1605 1611 1606 1597 1626 1717 1740 1755 1766 1778 1788 1788 1792 1788 1801 1827 1859 1869 1870 1859 1856 1847 1852 1849 1849 1846 1845 1831 1816 1807 1797 1799 1802 1800 1814 1816 1821 1822 1814 1812 1812 1796 1787 1777 1758 1732 1726 1720 1716 1711 1704 1696 1688 1680 1672 1668 1670 1669 1663 1657
2174 2168 2161 2152 2147 2140 2135 2129 2122 2114 2110 2102 2099 2095 2096 2092 2087 2081 2070 2063 2056 2053 2050 2052 2049 2044 2039 2031 2021 2013 2005 2000 1995 1987 1982 1976 1972 1964 1956 1951 1947 1941 1932 1922 1916 1912 1907 1903 1900 1897 1886 1872 1855 1843 1814 1804 1813 1804 1802 1801 1780 1777 1759 1750 1734 1719 1700 1681 1621 1560 1526 1496 1491 1488 1490 1493 1489 1489 1489 1489 1489 1489 1489 1489 1489 1489 1489 1498 1505 1512 1520 1536 1553 1563 1577 1592 1600 1607 1620 1623 1623 1671 1713 1726 1736 1750 1754 1759 1764 1763 1768 1779 1810 1829 1831 1825 1820 1821 1822 1821 1825 1821 1810 1799 1789 1782 1777 1777 1771 1764 1782 1779 1794 1794 1800 1799 1784 1768 1761 1757 1741 1728 1703 1700 1693 1688 1686 1682 1675 1666 1656 1647 1645 1644 1643 1643 1639
2184 2178 2168 2160 2152 2146 2141 2136 2131 2127 2122 2115 2112 2107 2104 2098 2094 2089 2082 2073 2068 2064 2062 2059 2055 2047 2044 2035 2029 2024 2017 2010 2002 1993 1985 1977 1970 1963 1957 1951 1945 1938 1929 1916 1905 1901 1898 1896 1891 1885 1874 1862 1845 1830 1818 1801 1791 1792 1790 1784 1778 1761 1744 1735 1723 1709 1684 1660 1638 1575 1517 1499 1496 1494 1494 1494 1494 1489 1489 1489 1489 1489 1489 1489 1489 1489 1489 1489 1500 1507 1516 1525 1541 1556 1575 1587 1592 1606 1622 1639 1658 1687 1701 1724 1732 1731 1733 1727 1728 1731 1735 1738 1752 1782 1781 1785 1788 1800 1803 1799 1796 1779 1763 1754 1758 1761 1760 1751 1746 1739 1740 1742 1753 1770 1766 1754 1744 1739 1729 1723 1713 1691 1679 1675 1674 1674 1673 1669 1660 1649 1637 1630 1628 1625 1624 1625 1625
2199 2191 2181 2173 2166 2158 2151 2148 2146 2140 2133 2127 2121 2116 2111 2106 2100 2092 2084 2078 2073 2069 2065 2062 2054 2049 2042 2038 2035 2031 2026 2022 2013 2002 1993 1986 1976 1969 1964 1957 1948 1939 1926 1914 1904 1899 1896 1888 1880 1873 1865 1854 1839 1825 1816 1808 1782 1766 1794 1805 1780 1753 1743 1731 1706 1690 1670 1639 1601 1574 1554 1520 1503 1500 1498 1495 1493 1493 1489 1489 1489 1489 1489 1489 1489 1489 1489 1489 1489 1500 1505 1514 1526 1546 1568 1580 1586 1598 1619 1635 1653 1682 1691 1708 1703 1705 1704 1705 1703 1701 1706 1707 1709 1717 1731 1750 1765 1768 1765 1767 1759 1745 1738 1744 1740 1740 1741 1728 1721 1714 1717 1736 1744 1744 1732 1715 1712 1712 1712 1698 1681 1669 1658 1658 1657 1655 1654 1651 1648 1637 1628 1622 1617 1614 1614 1613 1609
2211 2205 2199 2188 2180 2173 2166 2160 2157 2155 2151 2143 2134 2129 2125 2116 2107 2098 2089 2081 2075 2069 2065 2059 2054 2047 2043 2040 2038 2035 2032 2029 2022 2014 2004 1997 1989 1982 1976 1968 1957 1947 1935 1923 1914 1905 1895 1887 1878 1868 1862 1845 1829 1821 1815 1807 1800 1800 1810 1806 1802 1800 1766 1711 1688 1677 1653 1625 1597 1569 1552 1536 1519 1506 1498 1495 1491 1491 1489 1489 1489 1489 1489 1489 1489 1489 1489 1489 1489 1489 1496 1504 1513 1530 1554 1565 1578 1590 1611 1625 1637 1654 1659 1662 1665 1666 1673 1676 1680 1679 1681 1683 1679 1677 1689 1715 1734 1737 1733 1723 1721 1722 1715 1716 1720 1718 1715 1712 1712 1699 1708 1713 1710 1700 1697 1694 1691 1688 1678 1668 1657 1650 1647 1645 1642 1638 1634 1631 1628 1624 1618 1614 1611 1611 1611 1605 1599
2220 2218 2215 2209 2199 2189 2183 2180 2176 2172 2166 2158 2150 2143 2134 2125 2115 2106 2098 2089 2080 2072 2066 2062 2058 2053 2049 2047 2044 2041 2037 2033 2028 2019 2011 2005 1999 1993 1988 1982 1969 1956 1948 1938 1925 1916 1905 1894 1887 1880 1870 1858 1849 1840 1831 1825 1818 1818 1815 1814 1808 1807 1809 1759 1697 1669 1652 1626 1600 1580 1557 1538 1524 1511 1502 1494 1491 1490 1490 1489 1489 1489 1489 1489 1489 1489 1489 1489 1489 1489 1490 1499 1505 1516 1535 1553 1570 1582 1598 1611 1619 1619 1617 1624 1627 1636 1643 1649 1652 1656 1657 1656 1655 1657 1671 1693 1706 1709 1708 1706 1704 1701 1701 1700 1698 1697 1699 1702 1693 1692 1692 1690 1688 1685 1668 1666 1662 1657 1647 1637 1635 1633 1630 1627 1625 1622 1619 1617 1613 1608 1606 1603 1601 1600 1599 1598 1596
2241 2236 2230 2223 2217 2208 2198 2193 2190 2182 2175 2170 2162 2156 2147 2136 2124 2114 2106 2100 2091 2081 2073 2071 2068 2065 2063 2062 2059 2053 2043 2036 2029 2022 2015 2012 2009 2005 2000 1993 1983 1971 1957 1946 1934 1925 1918 1911 1901 1895 1887 1879 1871 1863 1854 1846 1840 1834 1826 1818 1812 1808 1801 1774 1757 1715 1655 1617 1590 1569 1551 1540 1527 1515 1506 1497 1492 1489 1490 1489 1489 1489 1489 1489 1489 1489 1489 1489 1489 1489 1489 1492 1494 1508 1525 1538 1553 1569 1583 1590 1594 1596 1597 1597 1604 1610 1617 1619 1622 1629 1629 1629 1629 1640 1655 1670 1675 1678 1680 1679 1674 1676 1678 1677 1678 1680 1678 1673 1669 1671 1671 1667 1662 1662 1656 1645 1638 1628 1622 1622 1622 1617 1612 1608 1604 1605 1608 1607 1603 1600 1598 1596 1592 1589 1588 1591 1594
2266 2256 2243 2236 2230 2221 2214 2209 2205 2197 2185 2177 2174 2167 2160 2149 2135 2125 2119 2112 2104 2095 2088 2084 2081 2080 2078 2076 2071 2063 2055 2046 2036 2027 2022 2022 2020 2015 2007 2000 1992 1980 1966 1954 1947 1939 1935 1930 1919 1909 1899 1888 1880 1875 1866 1857 1850 1844 1836 1825 1818 1812 1794 1769 1741 1684 1627 1606 1581 1561 1555 1546 1534 1521 1508 1499 1491 1488 1490 1489 1489 1489 1489 1489 1489 1489 1489 1489 1489 1489 1489 1489 1491 1500 1514 1521 1531 1543 1560 1566 1570 1576 1580 1583 1584 1586 1590 1589 1593 1599 1606 1606 1610 1617 1633 1642 1649 1650 1654 1653 1654 1655 1655 1653 1656 1656 1652 1643 1644 1647 1647 1643 1639 1638 1635 1627 1621 1612 1607 1606 1607 1602 1596 1595 1595 1596 1597 1597 1597 1595 1593 1592 1592 1591 1590 1592 1594
2286 2270 2255 2246 2239 2236 2234 2233 2229 2221 2210 2200 2195 2189 2173 2160 2145 2135 2125 2118 2113 2107 2101 2098 2096 2093 2091 2083 2078 2077 2071 2064 2055 2047 2040 2033 2028 2023 2015 2005 1996 1990 1980 1972 1965 1956 1948 1940 1934 1926 1913 1901 1896 1889 1880 1874 1868 1862 1854 1843 1833 1810 1789 1764 1741 1698 1652 1628 1603 1577 1557 1549 1534 1519 1508 1498 1492 1489 1490 1489 1489 1489 1489 1489 1489 1489 1489 1489 1489 1489 1489 1489 1492 1499 1506 1510 1514 1526 1536 1541 1545 1552 1559 1560 1564 1566 1572 1573 1573 1583 1591 1595 1599 1607 1617 1628 1630 1632 1634 1637 1638 1636 1638 1637 1633 1630 1627 1620 1618 1620 1620 1616 1615 1616 1615 1612 1604 1594 1591 1588 1587 1589 1590 1589 1589 1590 1590 1590 1591 1591 1591 1593 1595 1597 1597 1595 1595
2311 2282 2267 2259 2259 2258 2256 2252 2249 2246 2240 2232 2226 2222 2219 2209 2208 2177 2127 2121 2119 2115 2117 2118 2122 2122 2109 2099 2090 2085 2082 2077 2071 2065 2058 2055 2048 2041 2033 2017 2004 1994 1990 1991 1987 1970 1960 1953 1945 1938 1929 1919 1912 1907 1899 1894 1890 1884 1872 1859 1843 1822 1792 1766 1749 1724 1674 1631 1617 1591 1563 1543 1526 1519 1510 1500 1493 1491 1490 1489 1489 1489 1489 1489 1489 1489 1489 1489 1489 1489 1489 1489 1489 1495 1500 1502 1505 1511 1519 1522 1524 1529 1531 1532 1534 1546 1554 1559 1563 1567 1572 1580 1585 1591 1603 1609 1611 1612 1614 1615 1614 1615 1617 1616 1611 1603 1596 1599 1598 1593 1591 1596 1596 1596 1596 1593 1588 1585 1582 1580 1577 1579 1583 1585 1586 1586 1588 1590 1592 1594 1595 1595 1599 1603 1602 1600 1598
2362 2340 2320 2303 2292 2284 2281 2278 2277 2275 2269 2264 2264 2264 2263 2265 2274 2243 2206 2170 2116 2130 2136 2150 2155 2144 2134 2117 2100 2095 2092 2086 2082 2079 2077 2076 2078 2078 2075 2075 2032 2004 2002 2012 2007 1993 1974 1967 1955 1950 1943 1938 1934 1935 1935 1925 1913 1897 1883 1865 1850 1832 1806 1779 1754 1730 1644 1581 1582 1572 1544 1522 1524 1519 1511 1504 1497 1494 1489 1489 1489 1489 1489 1489 1489 1489 1489 1489 1489 1489 1489 1489 1489 1489 1491 1496 1498 1500 1505 1510 1511 1514 1514 1513 1519 1525 1537 1543 1549 1556 1559 1559 1563 1570 1582 1588 1592 1592 1595 1594 1592 1590 1592 1592 1588 1584 1578 1577 1579 1578 1579 1581 1583 1582 1580 1577 1576 1578 1581 1582 1584 1586 1587 1588 1588 1589 1591 1593 1597 1599 1601 1604 1607 1609 1609 1606 1603
2385 2375 2365 2341 2315 2306 2306 2303 2301 2299 2294 2288 2286 2283 2281 2284 2305 2311 2286 2268 2234 2218 2208 2186 2172 2157 2144 2128 2112 2106 2100 2099 2097 2096 2096 2101 2110 2115 2115 2113 2099 2096 2047 2062 2062 2032 2010 1987 1983 1967 1965 1962 1960 1956 1950 1937 1920 1902 1885 1864 1844 1850 1846 1807 1770 1719 1690 1656 1642 1622 1566 1525 1520 1520 1516 1509 1504 1501 1489 1489 1489 1489 1489 1489 1489 1489 1489 1489 1489 1489 1489 1489 1489 1489 1489 1491 1492 1491 1496 1498 1503 1504 1506 1509 1514 1521 1525 1530 1536 1543 1548 1548 1550 1557 1565 1572 1577 1580 1579 1578 1575 1572 1569 1567 1571 1568 1568 1567 1567 1568 1571 1574 1575 1575 1573 1571 1573 1576 1581 1586 1588 1590 1592 1594 1596 1596 1596 1597 1599 1603 1606 1609 1612 1612 1610 1610 1612
2402 2398 2394 2360 2323 2320 2320 2319 2320 2325 2330 2337 2343 2342 2338 2342 2336 2323 2296 2269 2260 2252 2232 2214 2191 2164 2162 2145 2143 2126 2119 2118 2117 2115 2114 2132 2152 2147 2142 2152 2153 2150 2139 2126 2118 2105 2062 2047 2033 2022 2002 1986 1977 1971 1957 1941 1924 1908 1898 1891 1889 1882 1861 1832 1804 1800 1803 1803 1743 1711 1648 1583 1523 1526 1523 1517 1510 1504 1489 1489 1489 1489 1489 1489 1489 1489 1489 1489 1489 1489 1489 1489 1489 1489 1489 1490 1491 1492 1495 1500 1502 1502 1501 1507 1512 1516 1519 1520 1522 1530 1536 1540 1543 1546 1552 1557 1561 1565 1566 1563 1560 1556 1555 1557 1559 1562 1561 1559 1562 1566 1570 1573 1575 1576 1576 1578 1581 1584 1587 1590 1593 1594 1597 1599 1600 1601 1602 1604 1604 1605 1608 1611 1613 1613 1612 1612 1613
2421 2420 2418 2406 2373 2352 2352 2353 2357 2366 2373 2379 2385 2380 2373 2362 2353 2333 2311 2284 2263 2254 2245 2234 2226 2217 2217 2191 2190 2175 2170 2171 2149 2134 2148 2163 2173 2180 2178 2174 2174 2166 2158 2149 2140 2127 2103 2083 2067 2043 2017 2003 1990 1980 1970 1957 1947 1936 1925 1919 1915 1907 1863 1814 1811 1809 1811 1813 1810 1796 1691 1572 1529 1528 1526 1522 1517 1509 1502 1489 1489 1489 1489 1489 1489 1489 1489 1489 1489 1489 1489 1489 1489 1489 1489 1489 1491 1496 1499 1502 1502 1501 1501 1502 1506 1511 1513 1514 1515 1520 1525 1529 1531 1537 1541 1543 1545 1548 1548 1549 1547 1549 1550 1552 1555 1554 1552 1555 1560 1565 1568 1573 1576 1578 1581 1583 1586 1589 1592 1595 1596 1599 1601 1602 1602 1604 1606 1609 1610 1610 1611 1614 1615 1615 1616 1616 1616
2451 2447 2448 2441 2413 2389 2386 2386 2394 2403 2409 2414 2410 2403 2388 2374 2360 2340 2311 2289 2276 2270 2263 2258 2257 2275 2296 2284 2267 2256 2251 2243 2234 2217 2206 2207 2204 2198 2193 2187 2180 2173 2167 2158 2147 2133 2117 2097 2079 2067 2049 2023 2003 1996 1993 1983 1974 1963 1952 1932 1913 1902 1886 1846 1816 1809 1806 1803 1801 1797 1694 1562 1538 1535 1531 1527 1519 1510 1500 1493 1489 1489 1489 1489 1489 1489 1489 1489 1489 1489 1489 1489 1489 1489 1489 1489 1495 1498 1500 1501 1501 1502 1503 1504 1507 1511 1513 1512 1513 1516 1520 1523 1525 1529 1534 1535 1534 1536 1538 1539 1540 1543 1547 1549 1551 1552 1553 1556 1561 1566 1569 1573 1577 1580 1581 1584 1587 1590 1594 1596 1599 1601 1604 1605 1607 1609 1612 1613 1614 1615 1617 1618 1619 1620 1621 1622 1622
2479 2470 2467 2463 2459 2445 2436 2435 2434 2435 2435 2430 2421 2406 2391 2377 2361 2345 2327 2310 2298 2290 2290 2292 2296 2300 2294 2289 2279 2266 2253 2242 2229 2227 2224 2212 2202 2197 2189 2181 2173 2166 2155 2143 2132 2118 2107 2092 2077 2067 2057 2050 2036 2020 2011 2005 1987 1966 1948 1930 1913 1897 1874 1843 1814 1807 1801 1799 1797 1728 1613 1552 1548 1554 1549 1534 1520 1504 1498 1494 1489 1489 1489 1489 1489 1489 1489 1489 1489 1489 1489 1489 1489 1489 1489 1494 1497 1500 1501 1502 1504 1506 1508 1510 1513 1516 1516 1515 1514 1516 1518 1520 1522 1525 1529 1529 1531 1533 1533 1533 1538 1542 1545 1547 1551 1554 1557 1560 1564 1569 1570 1573 1576 1580 1582 1584 1588 1592 1595 1598 1601 1605 1607 1609 1611 1613 1616 1618 1619 1620 1622 1624 1626 1627 1627 1629 1630
2520 2511 2499 2488 2474 2464 2459 2454 2448 2444 2439 2430 2419 2403 2387 2372 2358 2345 2329 2314 2307 2308 2308 2306 2305 2300 2293 2288 2278 2265 2251 2239 2231 2226 2224 2209 2188 2178 2175 2169 2161 2147 2130 2121 2113 2103 2094 2081 2070 2063 2052 2045 2036 2022 2007 1996 1978 1960 1941 1923 1904 1889 1867 1844 1821 1803 1794 1789 1788 1756 1645 1579 1579 1578 1570 1549 1522 1506 1496 1493 1491 1489 1489 1489 1489 1489 1489 1490 1490 1489 1489 1489 1489 1489 1492 1495 1498 1500 1504 1506 1508 1510 1512 1513 1514 1515 1515 1515 1515 1516 1518 1519 1519 1524 1528 1531 1533 1535 1536 1538 1541 1544 1546 1548 1551 1556 1560 1563 1567 1571 1573 1575 1578 1581 1583 1586 1590 1595 1599 1602 1606 1609 1611 1612 1615 1618 1619 1621 1623 1626 1628 1631 1633 1635 1636 1635 1636
2529 2518 2507 2494 2484 2473 2464 2455 2446 2439 2431 2422 2410 2396 2384 2373 2363 2353 2341 2328 2315 2311 2309 2308 2305 2298 2295 2287 2273 2256 2242 2233 2224 2219 2213 2200 2187 2174 2160 2152 2137 2120 2113 2106 2097 2084 2068 2057 2053 2048 2039 2032 2018 2008 1991 1981 1967 1950 1929 1917 1896 1872 1855 1835 1814 1795 1786 1781 1746 1688 1652 1614 1611 1619 1584 1553 1514 1501 1498 1494 1491 1492 1493 1492 1491 1492 1493 1493 1493 1493 1489 1497 1496 1494 1492 1493 1497 1501 1506 1510 1513 1513 1514 1514 1514 1514 1515 1515 1517 1520 1521 1523 1526 1531 1534 1535 1535 1538 1541 1542 1543 1545 1548 1552 1558 1560 1561 1564 1568 1572 1575 1578 1580 1583 1585 1589 1595 1598 1601 1605 1607 1610 1614 1617 1620 1621 1623 1625 1628 1632 1634 1635 1637 1639 1640 1641 1644
2522 2510 2500 2492 2483 2472 2461 2449 2440 2432 2422 2411 2401 2391 2382 2373 2363 2350 2335 2323 2313 2307 2304 2302 2300 2298 2294 2288 2275 2257 2239 2226 2212 2201 2200 2189 2179 2172 2154 2131 2118 2110 2103 2096 2080 2061 2044 2033 2023 2020 2021 2016 2002 1986 1973 1964 1955 1942 1931 1913 1897 1877 1851 1830 1807 1792 1782 1741 1697 1690 1687 1688 1688 1698 1649 1557 1510 1507 1504 1499 1498 1498 1498 1498 1498 1499 1501 1501 1499 1498 1499 1500 1501 1500 1497 1496 1498 1502 1508 1514 1516 1516 1514 1514 1515 1516 1518 1519 1521 1523 1525 1527 1530 1534 1535 1535 1537 1540 1542 1544 1547 1548 1551 1555 1558 1561 1563 1565 1570 1575 1578 1580 1582 1585 1588 1593 1597 1601 1604 1606 1608 1611 1615 1620 1623 1624 1626 1630 1633 1637 1640 1642 1642 1642 1644 1647 1646
2508 2498 2491 2482 2472 2464 2455 2445 2434 2425 2415 2405 2396 2386 2377 2369 2359 2351 2338 2320 2307 2300 2297 2294 2293 2291 2290 2288 2278 2269 2254 2244 2222 2213 2231 2179 2162 2151 2132 2118 2108 2099 2089 2081 2069 2048 2031 2019 2007 2002 1994 1984 1975 1968 1961 1951 1942 1940 1925 1906 1882 1853 1839 1825 1796 1768 1744 1720 1709 1699 1697 1696 1699 1698 1684 1611 1528 1512 1509 1508 1506 1506 1505 1505 1505 1506 1507 1507 1506 1506 1505 1505 1505 1503 1502 1501 1500 1503 1507 1512 1515 1516 1517 1519 1520 1521 1521 1522 1524 1525 1527 1529 1532 1535 1536 1536 1536 1536 1538 1543 1546 1551 1554 1557 1559 1562 1565 1568 1571 1576 1580 1582 1585 1587 1591 1595 1598 1602 1605 1608 1611 1614 1618 1622 1625 1629 1632 1635 1639 1644 1646 1647 1648 1649 1651 1653 1655
2494 2486 2476 2464 2457 2451 2436 2427 2421 2412 2401 2394 2386 2373 2364 2354 2353 2347 2332 2315 2300 2290 2285 2281 2279 2277 2274 2275 2280 2275 2274 2256 2243 2196 2211 2213 2166 2129 2117 2108 2098 2088 2079 2064 2048 2037 2023 2009 1995 1986 1977 1962 1951 1946 1942 1944 1938 1925 1910 1892 1870 1854 1836 1816 1786 1749 1723 1708 1702 1701 1698 1694 1677 1663 1619 1568 1545 1528 1518 1512 1510 1509 1509 1509 1510 1513 1515 1516 1515 1512 1509 1508 1508 1507 1506 1506 1505 1506 1508 1512 1515 1518 1521 1524 1526 1525 1525 1525 1527 1529 1530 1532 1535 1537 1538 1539 1540 1542 1543 1545 1549 1554 1558 1560 1562 1563 1566 1568 1571 1576 1580 1583 1585 1589 1593 1596 1600 1603 1607 1611 1615 1618 1621 1624 1628 1633 1637 1640 1643 1647 1649 1652 1654 1656 1659 1661 1662
2472 2461 2451 2449 2443 2427 2415 2409 2401 2392 2382 2371 2362 2355 2350 2344 2339 2334 2323 2302 2289 2281 2274 2266 2259 2253 2254 2255 2255 2261 2263 2259 2242 2212 2212 2197 2177 2139 2114 2104 2085 2069 2050 2032 2022 2015 2006 1994 1979 1963 1943 1929 1925 1923 1926 1924 1917 1908 1898 1889 1873 1856 1846 1806 1758 1735 1716 1701 1693 1691 1683 1657 1639 1629 1615 1592 1562 1538 1526 1519 1516 1514 1513 1513 1515 1517 1520 1521 1521 1520 1517 1514 1513 1513 1512 1512 1511 1511 1511 1512 1514 1518 1521 1524 1526 1526 1527 1528 1530 1533 1534 1536 1539 1541 1542 1544 1546 1546 1546 1548 1550 1555 1560 1562 1562 1563 1565 1568 1572 1576 1580 1583 1587 1592 1596 1599 1602 1605 1609 1613 1618 1622 1624 1626 1630 1635 1640 1644 1649 1652 1657 1660 1662 1664 1665 1666 1667
2447 2439 2434 2426 2416 2409 2401 2395 2384 2364 2347 2341 2341 2337 2329 2315 2310 2311 2301 2293 2284 2274 2268 2263 2250 2238 2237 2235 2232 2232 2235 2237 2242 2212 2200 2187 2171 2158 2147 2121 2094 2069 2045 2028 2016 2007 1997 1982 1955 1927 1918 1910 1903 1905 1900 1893 1887 1878 1877 1876 1860 1847 1829 1784 1737 1706 1698 1688 1680 1671 1655 1645 1637 1627 1614 1587 1559 1546 1535 1529 1525 1522 1520 1519 1520 1523 1524 1525 1525 1524 1523 1520 1518 1517 1517 1517 1516 1514 1512 1512 1515 1518 1522 1524 1527 1527 1527 1529 1532 1535 1537 1540 1543 1545 1547 1548 1549 1550 1551 1552 1555 1559 1562 1565 1565 1566 1567 1570 1573 1577 1582 1586 1591 1595 1600 1603 1606 1609 1612 1618 1625 1630 1631 1631 1633 1637 1641 1647 1652 1659 1663 1666 1668 1671 1673 1673 1673
2433 2423 2410 2398 2393 2388 2386 2381 2356 2335 2333 2331 2328 2322 2309 2298 2293 2288 2284 2278 2267 2255 2243 2239 2228 2220 2215 2210 2203 2202 2208 2211 2204 2197 2185 2176 2162 2144 2128 2106 2094 2087 2055 2033 2020 2008 1996 1969 1938 1921 1908 1900 1892 1882 1873 1867 1862 1861 1857 1845 1832 1821 1801 1775 1744 1708 1687 1674 1662 1650 1645 1639 1632 1621 1603 1583 1566 1552 1542 1537 1533 1530 1527 1525 1526 1529 1530 1530 1529 1529 1528 1526 1522 1521 1522 1522 1521 1519 1518 1518 1518 1519 1523 1526 1528 1529 1530 1532 1536 1540 1541 1543 1547 1549 1551 1551 1552 1555 1557 1562 1565 1567 1570 1569 1568 1568 1569 1572 1576 1581 1585 1589 1596 1602 1606 1609 1614 1618 1623 1629 1636 1642 1643 1642 1642 1645 1655 1666 1671 1672 1674 1673 1675 1676 1678 1677 1678
2419 2405 2392 2378 2367 2368 2364 2349 2335 2323 2315 2314 2310 2305 2303 2292 2283 2278 2270 2260 2247 2233 2217 2215 2206 2201 2194 2186 2182 2180 2165 2172 2173 2170 2168 2163 2151 2137 2115 2097 2083 2070 2058 2044 2023 1997 1961 1932 1916 1908 1902 1887 1873 1865 1857 1849 1845 1844 1842 1834 1822 1795 1773 1752 1722 1699 1679 1666 1654 1644 1636 1628 1619 1609 1597 1583 1568 1556 1547 1540 1536 1534 1532 1531 1533 1535 1535 1535 1535 1533 1532 1531 1530 1529 1528 1528 1528 1526 1526 1526 1525 1526 1527 1529 1531 1532 1534 1536 1540 1543 1546 1549 1553 1555 1555 1556 1557 1559 1564 1568 1571 1573 1572 1572 1573 1575 1578 1580 1583 1587 1592 1599 1604 1609 1615 1620 1624 1631 1638 1646 1651 1656 1659 1659 1660 1665 1679 1690 1693 1694 1692 1689 1687 1684 1684 1685 1687
2403 2391 2381 2366 2353 2342 2332 2324 2314 2306 2299 2288 2280 2280 2279 2269 2260 2257 2248 2221 2198 2189 2182 2183 2180 2177 2172 2159 2148 2137 2142 2142 2146 2155 2148 2144 2140 2127 2102 2077 2062 2053 2047 2031 2005 1967 1942 1924 1915 1912 1886 1863 1853 1846 1840 1834 1831 1831 1828 1817 1789 1770 1755 1738 1720 1702 1683 1667 1653 1641 1630 1620 1611 1603 1594 1580 1567 1559 1553 1546 1539 1536 1536 1538 1540 1541 1541 1539 1537 1535 1535 1535 1536 1536 1536 1535 1534 1533 1533 1532 1532 1533 1533 1532 1532 1534 1536 1539 1543 1547 1551 1553 1556 1558 1560 1561 1564 1567 1569 1572 1573 1574 1577 1578 1581 1584 1586 1588 1594 1600 1606 1613 1620 1625 1629 1634 1639 1647 1654 1659 1664 1671 1679 1683 1688 1698 1709 1717 1721 1720 1715 1710 1700 1691 1693 1697 1699
2398 2386 2372 2356 2343 2329 2319 2308 2303 2295 2280 2267 2260 2252 2246 2236 2229 2219 2203 2193 2181 2168 2163 2161 2159 2151 2143 2138 2126 2120 2118 2119 2117 2116 2113 2121 2115 2102 2083 2062 2045 2037 2028 2010 1994 1976 1960 1942 1921 1895 1874 1860 1849 1838 1826 1821 1817 1815 1808 1796 1779 1761 1746 1733 1718 1702 1682 1662 1650 1638 1628 1618 1610 1601 1590 1579 1570 1562 1555 1548 1542 1540 1540 1543 1545 1546 1546 1545 1542 1539 1539 1540 1541 1541 1541 1540 1537 1535 1535 1536 1536 1538 1538 1536 1534 1536 1539 1542 1546 1549 1552 1554 1556 1558 1561 1565 1568 1571 1574 1575 1577 1580 1583 1585 1588 1590 1593 1599 1608 1616 1624 1631 1635 1639 1648 1658 1668 1673 1672 1675 1686 1699 1709 1715 1720 1730 1743 1751 1755 1751 1744 1745 1741 1725 1710 1709 1709
2400 2385 2370 2352 2337 2323 2312 2302 2292 2279 2268 2262 2259 2255 2239 2223 2202 2184 2179 2173 2163 2153 2146 2140 2132 2124 2116 2109 2106 2102 2097 2095 2094 2085 2081 2084 2074 2066 2053 2041 2031 2023 2016 2007 1994 1977 1962 1953 1930 1895 1869 1858 1849 1835 1822 1814 1806 1798 1790 1776 1762 1751 1738 1723 1708 1690 1675 1663 1651 1640 1631 1623 1611 1598 1589 1582 1573 1565 1559 1553 1547 1546 1547 1548 1549 1550 1552 1550 1549 1547 1544 1543 1544 1544 1544 1542 1541 1540 1540 1540 1541 1542 1542 1542 1541 1542 1544 1547 1549 1552 1553 1555 1557 1560 1564 1568 1571 1574 1576 1579 1583 1586 1589 1593 1596 1599 1605 1616 1628 1636 1644 1653 1661 1670 1680 1694 1704 1707 1712 1719 1722 1727 1737 1739 1749 1759 1766 1773 1774 1773 1773 1769 1767 1759 1739 1725 1723
2428 2404 2374 2356 2341 2326 2312 2299 2285 2271 2262 2254 2243 2231 2225 2211 2191 2173 2161 2156 2147 2135 2125 2119 2113 2106 2098 2089 2082 2080 2080 2069 2061 2049 2030 2035 2032 2028 2019 2010 2008 2005 2002 1997 1990 1980 1957 1929 1897 1871 1863 1855 1845 1832 1818 1805 1795 1786 1776 1762 1749 1737 1724 1709 1695 1684 1673 1663 1652 1643 1634 1623 1609 1597 1588 1580 1573 1567 1561 1556 1554 1553 1553 1553 1554 1556 1557 1556 1554 1553 1553 1550 1548 1549 1549 1548 1547 1546 1545 1545 1546 1547 1549 1550 1551 1552 1554 1557 1558 1559 1559 1560 1562 1565 1568 1571 1574 1575 1579 1583 1586 1590 1595 1599 1605 1611 1620 1629 1642 1656 1668 1681 1693 1703 1713 1722 1730 1736 1740 1744 1749 1755 1762 1766 1771 1786 1786 1777 1778 1782 1778 1773 1769 1764 1752 1740 1743
2430 2408 2399 2385 2366 2346 2324 2303 2285 2272 2259 2247 2233 2220 2210 2198 2176 2166 2159 2152 2143 2133 2122 2112 2102 2094 2084 2073 2061 2048 2035 2021 2007 2003 1999 2005 2009 2003 1994 1989 1985 1980 1976 1978 1979 1971 1948 1919 1900 1884 1870 1859 1844 1830 1822 1811 1794 1782 1766 1749 1737 1724 1713 1702 1689 1678 1670 1661 1651 1642 1632 1622 1612 1601 1589 1581 1574 1569 1564 1562 1560 1560 1560 1560 1562 1564 1565 1564 1562 1559 1558 1557 1555 1553 1553 1553 1553 1551 1550 1551 1553 1556 1561 1564 1565 1567 1569 1570 1571 1573 1574 1574 1574 1578 1582 1583 1585 1588 1592 1597 1600 1605 1609 1613 1619 1624 1632 1643 1659 1675 1689 1701 1711 1722 1730 1738 1750 1760 1770 1779 1783 1792 1806 1805 1803 1805 1816 1816 1825 1822 1816 1779 1779 1779 1777 1769 1758
2429 2415 2400 2386 2369 2351 2332 2311 2296 2280 2265 2254 2238 2223 2211 2203 2182 2163 2160 2159 2144 2133 2121 2110 2092 2080 2069 2059 2045 2033 2024 2015 2005 1994 1989 1987 1986 1983 1976 1966 1959 1959 1958 1958 1958 1947 1933 1911 1892 1877 1864 1856 1847 1829 1811 1800 1788 1772 1755 1740 1725 1717 1707 1695 1683 1675 1665 1655 1645 1634 1626 1619 1610 1598 1587 1580 1575 1571 1570 1569 1569 1568 1567 1567 1568 1568 1569 1568 1566 1564 1561 1559 1559 1559 1559 1560 1560 1559 1559 1559 1562 1566 1573 1579 1583 1585 1585 1585 1587 1590 1593 1596 1598 1600 1599 1604 1613 1617 1622 1624 1625 1626 1628 1630 1634 1642 1650 1659 1670 1683 1700 1712 1719 1731 1745 1754 1766 1780 1791 1801 1816 1823 1832 1847 1866 1880 1853 1859 1856 1849 1838 1824 1815 1802 1782 1777 1775
2428 2410 2391 2374 2363 2351 2334 2318 2301 2284 2268 2255 2243 2228 2217 2204 2190 2177 2166 2158 2143 2131 2113 2098 2083 2069 2061 2052 2039 2025 2012 2002 1992 1984 1972 1965 1966 1966 1956 1948 1945 1943 1941 1940 1936 1928 1911 1896 1886 1875 1859 1845 1830 1813 1800 1785 1771 1757 1742 1728 1718 1707 1696 1686 1678 1669 1657 1647 1638 1629 1622 1614 1605 1595 1587 1580 1576 1574 1573 1574 1574 1574 1575 1575 1574 1573 1572 1572 1572 1570 1567 1564 1562 1562 1563 1564 1565 1567 1568 1572 1577 1583 1590 1598 1602 1604 1606 1607 1610 1615 1619 1621 1622 1623 1628 1633 1636 1639 1644 1647 1649 1649 1650 1652 1658 1665 1670 1675 1682 1695 1711 1721 1730 1740 1754 1764 1773 1790 1808 1851 1862 1857 1862 1879 1906 1904 1904 1906 1899 1887 1873 1851 1827 1811 1797 1783 1776
2423 2406 2384 2366 2358 2347 2331 2313 2295 2278 2263 2246 2235 2229 2217 2206 2196 2186 2182 2169 2155 2135 2123 2107 2093 2078 2055 2036 2024 2011 2000 1990 1981 1970 1960 1952 1948 1945 1940 1934 1929 1925 1923 1920 1909 1897 1888 1879 1867 1858 1842 1827 1812 1803 1787 1771 1760 1748 1733 1719 1707 1698 1689 1679 1671 1661 1651 1644 1638 1629 1619 1611 1603 1596 1589 1584 1581 1579 1578 1580 1581 1582 1583 1583 1583 1581 1579 1578 1577 1577 1574 1570 1568 1567 1567 1568 1570 1575 1582 1589 1595 1601 1606 1611 1617 1619 1622 1626 1629 1630 1632 1637 1643 1649 1651 1654 1657 1660 1665 1670 1671 1670 1668 1666 1670 1676 1681 1686 1699 1711 1728 1735 1751 1753 1770 1761 1772 1827 1841 1863 1882 1883 1886 1898 1914 1916 1916 1912 1902 1902 1895 1875 1826 1823 1811 1798 1789
2429 2402 2381 2365 2350 2335 2320 2303 2286 2272 2256 2240 2229 2218 2205 2195 2187 2184 2181 2177 2164 2151 2137 2128 2107 2076 2047 2030 2020 2008 1996 1983 1970 1960 1950 1944 1937 1930 1924 1917 1911 1902 1893 1893 1890 1883 1873 1860 1851 1844 1825 1810 1800 1786 1773 1761 1750 1740 1725 1709 1700 1693 1687 1679 1669 1658 1650 1645 1637 1626 1616 1608 1602 1597 1593 1590 1585 1583 1583 1584 1586 1587 1588 1588 1588 1588 1586 1584 1584 1584 1581 1579 1575 1572 1573 1574 1578 1586 1596 1605 1611 1614 1619 1624 1627 1631 1634 1638 1642 1649 1655 1663 1674 1676 1674 1680 1684 1687 1692 1689 1688 1684 1681 1683 1692 1730 1727 1698 1704 1720 1742 1772 1778 1769 1780 1796 1809 1836 1851 1876 1889 1897 1901 1914 1932 1941 1945 1941 1932 1935 1918 1900 1874 1831 1825 1813 1798
2435 2411 2388 2367 2349 2329 2310 2292 2276 2265 2254 2238 2221 2207 2194 2184 2177 2173 2169 2163 2150 2138 2129 2116 2099 2076 2054 2038 2028 2017 2002 1984 1966 1954 1945 1938 1929 1917 1908 1899 1890 1883 1879 1875 1872 1862 1850 1837 1826 1818 1809 1798 1785 1770 1756 1747 1741 1729 1714 1704 1697 1692 1687 1680 1671 1661 1653 1646 1637 1626 1616 1609 1603 1600 1597 1594 1590 1588 1588 1589 1589 1591 1592 1592 1591 1590 1590 1590 1589 1589 1590 1588 1583 1581 1583 1586 1592 1598 1605 1611 1618 1628 1634 1638 1644 1650 1654 1657 1663 1671 1685 1700 1708 1708 1715 1724 1729 1728 1725 1721 1711 1709 1712 1724 1742 1754 1756 1753 1738 1729 1736 1752 1772 1785 1783 1795 1814 1844 1852 1872 1888 1901 1913 1929 1932 1944 1962 1977 1973 1973 1951 1942 1901 1884 1862 1837 1826
2443 2419 2395 2372 2350 2329 2306 2286 2269 2261 2250 2232 2214 2198 2185 2177 2169 2162 2153 2143 2133 2126 2116 2106 2091 2072 2056 2043 2027 2010 1995 1980 1963 1946 1937 1931 1921 1911 1901 1892 1884 1874 1869 1864 1855 1846 1833 1823 1812 1802 1794 1786 1774 1760 1751 1743 1734 1723 1712 1703 1696 1690 1684 1676 1668 1660 1653 1647 1637 1628 1619 1612 1606 1603 1600 1598 1595 1593 1592 1593 1595 1598 1600 1599 1597 1597 1597 1595 1595 1594 1594 1593 1591 1591 1594 1597 1603 1609 1614 1620 1631 1641 1649 1655 1661 1669 1675 1678 1684 1696 1715 1732 1741 1747 1751 1752 1755 1759 1761 1756 1755 1752 1746 1738 1743 1766 1769 1771 1776 1775 1787 1791 1782 1787 1790 1804 1822 1845 1859 1876 1897 1906 1925 1938 1958 1983 1988 1995 1997 2001 1994 1990 1950 1912 1882 1862 1837
2457 2441 2418 2391 2372 2352 2322 2284 2270 2262 2242 2224 2211 2198 2184 2171 2161 2150 2139 2130 2122 2113 2104 2096 2086 2070 2053 2041 2029 2010 1992 1975 1959 1945 1935 1927 1918 1907 1898 1889 1879 1870 1862 1855 1846 1834 1825 1816 1806 1797 1786 1776 1766 1756 1747 1739 1730 1721 1713 1705 1697 1689 1681 1674 1664 1656 1651 1646 1637 1629 1623 1617 1612 1606 1603 1600 1599 1598 1599 1600 1602 1605 1608 1608 1607 1605 1604 1602 1600 1598 1597 1595 1596 1598 1604 1610 1614 1620 1629 1636 1644 1653 1658 1666 1677 1691 1703 1710 1717 1729 1747 1760 1769 1772 1774 1785 1787 1777 1776 1774 1774 1775 1772 1767 1765 1768 1773 1779 1783 1790 1793 1796 1796 1794 1807 1823 1837 1844 1853 1882 1899 1920 1939 1953 1983 1986 2001 2013 2021 2022 2022 2003 1992 1953 1922 1894 1871
2465 2451 2434 2413 2397 2388 2379 2353 2311 2286 2256 2219 2211 2194 2179 2168 2156 2145 2134 2124 2114 2104 2095 2086 2076 2061 2047 2032 2016 2002 1990 1977 1963 1947 1934 1925 1914 1903 1893 1884 1875 1867 1859 1850 1839 1829 1819 1811 1803 1792 1780 1771 1763 1754 1745 1736 1729 1720 1711 1702 1694 1687 1680 1672 1663 1657 1651 1646 1640 1633 1628 1623 1618 1613 1608 1604 1603 1603 1605 1608 1611 1613 1615 1615 1613 1611 1609 1606 1605 1603 1601 1601 1602 1610 1617 1621 1626 1633 1641 1650 1660 1668 1680 1697 1717 1732 1743 1750 1755 1764 1777 1789 1794 1800 1816 1831 1837 1835 1809 1785 1790 1787 1781 1776 1775 1778 1787 1790 1792 1793 1794 1802 1803 1814 1821 1834 1846 1846 1861 1878 1904 1924 1944 1962 1981 1993 2015 2025 2033 2034 2040 2033 2007 1987 1973 1914 1892
2473 2461 2445 2431 2428 2414 2392 2380 2363 2348 2335 2318 2296 2272 2239 2208 2176 2139 2131 2123 2112 2098 2085 2072 2061 2049 2036 2022 2009 1998 1987 1975 1964 1951 1937 1924 1914 1902 1889 1879 1871 1864 1856 1845 1834 1825 1817 1808 1797 1786 1777 1768 1760 1751 1743 1735 1727 1720 1712 1703 1694 1687 1680 1675 1669 1662 1656 1650 1644 1640 1635 1629 1623 1618 1614 1611 1610 1611 1614 1618 1621 1623 1623 1622 1621 1619 1617 1614 1612 1610 1609 1609 1618 1627 1630 1631 1638 1654 1669 1688 1701 1707 1719 1738 1752 1761 1771 1781 1790 1797 1804 1814 1825 1843 1858 1864 1872 1886 1896 1878 1830 1801 1796 1792 1792 1792 1794 1795 1798 1801 1807 1811 1815 1814 1832 1842 1844 1844 1860 1871 1892 1917 1934 1958 1978 1993 2011 2039 2045 2068 2077 2077 2038 2006 1984 1967 1905
2469 2458 2446 2436 2427 2408 2393 2378 2366 2356 2347 2335 2317 2299 2289 2281 2267 2218 2159 2127 2110 2098 2087 2074 2061 2046 2035 2021 2008 1995 1983 1972 1960 1951 1938 1926 1914 1903 1893 1882 1872 1862 1853 1842 1832 1824 1816 1805 1793 1783 1775 1767 1759 1751 1743 1735 1728 1722 1714 1707 1698 1689 1684 1679 1672 1666 1661 1655 1649 1644 1640 1635 1629 1624 1620 1619 1619 1621 1624 1628 1631 1631 1631 1630 1628 1626 1623 1621 1620 1621 1625 1634 1640 1643 1643 1642 1653 1673 1706 1732 1740 1749 1760 1772 1782 1787 1796 1810 1824 1832 1839 1847 1860 1875 1889 1900 1911 1913 1915 1915 1912 1871 1828 1814 1808 1806 1804 1805 1807 1811 1814 1817 1819 1827 1831 1836 1841 1846 1858 1872 1889 1916 1940 1974 1993 1996 2017 2052 2067 2083 2087 2070 2074 2041 2005 1964 1932
2453 2439 2425 2416 2410 2400 2384 2372 2361 2352 2341 2331 2316 2301 2287 2271 2255 2242 2224 2168 2121 2110 2098 2081 2064 2050 2035 2021 2005 1992 1981 1968 1957 1947 1937 1926 1913 1903 1895 1884 1872 1862 1853 1843 1834 1825 1815 1805 1794 1784 1776 1769 1760 1751 1742 1735 1728 1721 1714 1708 1701 1692 1685 1679 1674 1669 1662 1655 1651 1647 1644 1642 1637 1633 1629 1626 1628 1631 1634 1637 1638 1638 1638 1638 1637 1635 1630 1628 1629 1642 1658 1670 1681 1701 1713 1709 1734 1764 1762 1772 1780 1794 1811 1822 1827 1832 1839 1849 1857 1866 1875 1885 1895 1902 1912 1922 1931 1934 1930 1921 1910 1905 1884 1844 1816 1818 1819 1820 1821 1820 1818 1823 1827 1830 1830 1835 1837 1843 1862 1871 1884 1922 1946 1978 1999 2009 2028 2055 2080 2087 2083 2081 2075 2038 2007 1966 1929
2441 2426 2415 2405 2392 2380 2373 2361 2348 2336 2326 2316 2304 2292 2278 2262 2247 2232 2214 2202 2181 2138 2101 2086 2071 2057 2038 2017 2002 1989 1977 1966 1954 1943 1933 1923 1914 1904 1894 1883 1870 1861 1855 1847 1836 1827 1818 1808 1796 1785 1777 1770 1761 1752 1743 1734 1726 1719 1713 1707 1701 1692 1684 1681 1676 1670 1665 1658 1652 1648 1646 1644 1642 1640 1638 1638 1640 1643 1646 1649 1649 1649 1649 1648 1649 1651 1647 1646 1664 1683 1695 1709 1739 1731 1743 1748 1764 1784 1804 1811 1854 1850 1854 1861 1869 1872 1871 1873 1882 1896 1908 1915 1918 1921 1931 1942 1946 1946 1933 1919 1910 1902 1885 1866 1849 1838 1837 1836 1833 1828 1825 1825 1827 1833 1838 1842 1841 1857 1872 1878 1894 1918 1932 1979 2004 2019 2045 2062 2085 2087 2091 2088 2075 2035 2005 1970 1939
2434 2419 2410 2406 2394 2380 2366 2350 2333 2319 2310 2300 2292 2281 2268 2254 2238 2221 2209 2201 2183 2153 2114 2084 2065 2048 2032 2018 2005 1992 1979 1964 1953 1943 1934 1925 1915 1906 1897 1885 1873 1865 1858 1851 1842 1832 1820 1810 1800 1790 1781 1773 1764 1756 1747 1738 1728 1720 1713 1708 1700 1692 1687 1684 1681 1675 1668 1661 1655 1650 1647 1648 1649 1651 1653 1654 1656 1658 1661 1663 1664 1662 1659 1661 1667 1674 1684 1701 1714 1725 1737 1751 1741 1755 1767 1768 1775 1830 1846 1851 1889 1886 1885 1888 1895 1903 1902 1905 1915 1927 1935 1934 1935 1943 1954 1968 1980 1979 1973 1961 1936 1919 1909 1898 1888 1861 1848 1846 1845 1843 1837 1831 1834 1840 1853 1845 1858 1871 1878 1894 1901 1921 1951 1979 2004 2025 2042 2055 2082 2092 2094 2082 2062 2035 2007 1964 1946
2433 2421 2412 2400 2387 2375 2360 2344 2327 2308 2295 2288 2281 2270 2257 2243 2229 2215 2201 2189 2165 2135 2108 2085 2062 2040 2025 2012 2000 1988 1975 1962 1952 1945 1935 1927 1917 1909 1899 1887 1874 1866 1860 1853 1844 1834 1824 1814 1804 1794 1783 1773 1765 1757 1748 1739 1730 1721 1715 1712 1704 1694 1689 1686 1683 1680 1675 1667 1661 1656 1657 1658 1661 1664 1664 1665 1664 1665 1665 1667 1670 1669 1669 1675 1683 1694 1701 1716 1751 1763 1778 1753 1760 1789 1785 1806 1832 1858 1924 1918 1918 1916 1916 1918 1922 1929 1944 1951 1954 1962 1971 1978 1976 1983 1998 2009 2010 2015 2022 1979 1942 1936 1914 1908 1896 1884 1871 1859 1852 1842 1840 1841 1843 1850 1860 1858 1868 1878 1899 1904 1911 1917 1951 1985 2012 2024 2036 2047 2074 2081 2081 2074 2058 2035 2013 1998 1949
2442 2430 2417 2399 2382 2365 2347 2329 2309 2293 2283 2277 2269 2255 2240 2226 2210 2196 2183 2161 2140 2122 2102 2082 2061 2038 2023 2012 2001 1990 1978 1966 1954 1944 1938 1930 1921 1912 1902 1888 1876 1867 1862 1854 1844 1835 1825 1816 1805 1793 1782 1774 1766 1758 1749 1739 1731 1724 1717 1711 1707 1701 1695 1692 1689 1685 1680 1676 1673 1674 1673 1672 1674 1676 1678 1680 1680 1680 1677 1675 1678 1681 1684 1686 1699 1721 1733 1747 1770 1773 1780 1781 1818 1830 1831 1844 1862 1925 1933 1940 1952 1956 1950 1952 1958 1972 1979 1979 1982 1991 2004 2026 2081 2121 2129 2124 2120 2110 2027 2001 1962 1944 1929 1916 1903 1888 1882 1873 1874 1871 1863 1849 1852 1857 1862 1868 1879 1890 1903 1905 1912 1918 1952 1984 2004 2024 2033 2046 2064 2077 2076 2072 2055 2045 2023 2019 1980
2447 2436 2422 2406 2384 2361 2342 2323 2304 2288 2279 2268 2256 2242 2226 2207 2190 2176 2162 2147 2132 2119 2108 2086 2064 2045 2028 2018 2011 2000 1987 1972 1959 1953 1947 1939 1930 1920 1908 1896 1886 1877 1869 1862 1852 1838 1825 1813 1802 1790 1780 1771 1765 1760 1752 1742 1731 1725 1720 1716 1711 1705 1700 1698 1697 1695 1691 1690 1689 1687 1687 1687 1686 1690 1698 1704 1708 1708 1703 1702 1705 1707 1707 1705 1722 1739 1758 1778 1800 1811 1817 1831 1857 1865 1874 1891 1906 1931 1945 1963 1970 1973 1976 1975 1981 1985 1997 2010 2033 2063 2090 2119 2141 2149 2156 2154 2155 2151 2051 2020 1967 1956 1945 1931 1922 1907 1901 1898 1886 1878 1870 1871 1867 1876 1882 1879 1887 1895 1896 1906 1914 1927 1954 1987 2010 2023 2038 2051 2064 2073 2073 2068 2068 2056 2032 2023 1996
2450 2440 2430 2413 2390 2367 2344 2326 2310 2293 2275 2257 2242 2227 2210 2192 2180 2170 2157 2140 2126 2117 2106 2090 2069 2049 2036 2028 2020 2010 1997 1984 1973 1964 1956 1948 1941 1931 1921 1913 1903 1891 1882 1872 1859 1841 1823 1810 1799 1792 1782 1773 1768 1763 1754 1742 1734 1729 1724 1720 1717 1712 1710 1708 1709 1711 1713 1713 1711 1709 1709 1710 1709 1712 1714 1718 1722 1726 1728 1728 1727 1724 1720 1724 1737 1752 1773 1785 1805 1821 1842 1857 1859 1870 1879 1903 1926 1934 1958 1962 1973 1991 2004 2015 2018 2034 2059 2079 2101 2114 2127 2134 2143 2151 2163 2145 2174 2098 2074 2044 1995 1972 1966 1961 1952 1934 1927 1921 1915 1897 1885 1883 1895 1892 1891 1894 1893 1896 1900 1908 1920 1941 1966 1993 2017 2038 2049 2052 2070 2076 2074 2068 2062 2059 2038 2026 2015
2458 2447 2435 2413 2384 2362 2342 2327 2315 2298 2279 2260 2241 2220 2202 2187 2175 2165 2152 2135 2121 2111 2101 2086 2069 2055 2043 2033 2023 2011 1997 1986 1977 1968 1961 1957 1951 1946 1943 1938 1938 1918 1893 1879 1863 1844 1827 1814 1804 1794 1784 1778 1773 1765 1756 1747 1740 1735 1730 1724 1721 1722 1723 1726 1730 1736 1739 1740 1737 1731 1728 1725 1724 1714 1766 1783 1734 1737 1739 1740 1736 1732 1738 1741 1750 1762 1776 1786 1803 1833 1845 1850 1854 1870 1893 1913 1928 1930 1960 1966 1994 2000 2019 2037 2054 2069 2081 2096 2112 2127 2140 2137 2145 2152 2157 2146 2128 2108 2085 2029 2033 2039 2035 1984 1971 1973 1963 1948 1936 1926 1909 1906 1914 1912 1912 1907 1899 1899 1906 1916 1940 1968 1992 2014 2033 2060 2059 2075 2083 2085 2087 2080 2074 2064 2059 2035 2028
2454 2444 2432 2417 2393 2368 2349 2335 2323 2306 2280 2260 2242 2221 2202 2189 2178 2168 2154 2132 2116 2106 2095 2084 2072 2062 2052 2040 2027 2015 2002 1990 1980 1971 1966 1963 1964 1968 1969 1966 1960 1952 1935 1900 1867 1853 1841 1829 1813 1800 1791 1784 1777 1769 1758 1749 1743 1739 1736 1735 1736 1740 1747 1752 1756 1762 1767 1776 1776 1786 1784 1808 1810 1835 1873 1823 1778 1759 1755 1757 1742 1740 1758 1762 1763 1770 1781 1788 1803 1826 1837 1847 1857 1877 1905 1925 1926 1936 1948 1972 1994 2031 2034 2050 2067 2083 2105 2118 2125 2138 2150 2152 2159 2164 2161 2150 2136 2123 2059 2063 2057 2066 2071 2063 2040 2039 2029 2008 1953 1949 1936 1938 1940 1933 1924 1921 1924 1922 1929 1940 1964 1992 2017 2035 2057 2081 2092 2091 2094 2096 2100 2104 2088 2073 2060 2060 2042
2451 2437 2421 2404 2389 2377 2361 2346 2336 2326 2299 2266 2248 2236 2219 2202 2190 2174 2150 2134 2118 2106 2093 2082 2073 2063 2050 2038 2028 2019 2008 1998 1990 1982 1977 1975 1980 1984 1985 1983 1977 1968 1948 1916 1887 1869 1853 1837 1822 1812 1803 1792 1782 1773 1764 1755 1748 1745 1744 1746 1751 1756 1762 1767 1772 1780 1793 1806 1818 1830 1839 1853 1880 1899 1906 1903 1832 1788 1776 1767 1764 1756 1760 1781 1782 1784 1791 1797 1806 1816 1824 1835 1854 1887 1920 1936 1932 1944 1973 1990 2024 2028 2047 2070 2078 2110 2110 2136 2147 2148 2154 2165 2171 2178 2178 2177 2124 2113 2105 2097 2092 2117 2119 2122 2123 2082 2055 2040 2006 1979 1966 1953 1950 1948 1948 1947 1952 1959 1970 1975 1993 2020 2052 2062 2087 2107 2111 2109 2104 2110 2110 2107 2102 2087 2068 2069 2057
2441 2428 2411 2397 2387 2375 2362 2349 2332 2311 2295 2284 2268 2243 2222 2210 2198 2182 2161 2138 2121 2110 2100 2089 2076 2063 2051 2043 2035 2026 2017 2007 2002 1999 1998 2000 2003 2002 1994 1989 1985 1971 1942 1915 1892 1874 1857 1842 1832 1822 1812 1800 1790 1780 1771 1763 1756 1752 1750 1752 1756 1763 1772 1780 1789 1801 1813 1826 1841 1852 1863 1875 1892 1909 1903 1899 1872 1841 1808 1792 1778 1774 1775 1795 1796 1801 1801 1802 1811 1815 1821 1830 1848 1899 1932 1952 1955 1980 1986 2015 2031 2049 2072 2092 2102 2115 2134 2143 2150 2163 2171 2179 2174 2157 2162 2176 2178 2154 2142 2148 2155 2184 2207 2198 2195 2190 2137 2093 2086 2054 2048 2036 1986 1986 1982 1974 1969 1992 1999 2000 2014 2045 2058 2093 2129 2146 2149 2145 2143 2122 2126 2117 2111 2102 2092 2072 2068
2434 2419 2402 2387 2378 2369 2358 2344 2328 2311 2295 2280 2267 2250 2230 2211 2194 2176 2157 2139 2125 2114 2106 2098 2083 2070 2061 2054 2046 2037 2028 2025 2026 2028 2029 2023 2013 2005 1999 1994 1981 1962 1939 1915 1899 1885 1869 1854 1841 1829 1819 1810 1801 1791 1781 1771 1765 1761 1761 1764 1769 1777 1788 1800 1810 1818 1828 1842 1856 1870 1883 1897 1908 1916 1924 1918 1907 1874 1859 1834 1812 1798 1802 1802 1805 1810 1812 1805 1815 1821 1830 1842 1866 1918 1953 1961 1975 1986 2009 2027 2041 2065 2072 2089 2104 2113 2126 2132 2158 2164 2168 2179 2208 2216 2225 2244 2279 2279 2240 2256 2245 2250 2272 2274 2269 2226 2193 2189 2150 2130 2057 2057 2040 2020 1999 2001 2002 2004 2020 2041 2051 2087 2100 2124 2151 2156 2177 2172 2174 2171 2154 2128 2119 2111 2109 2094 2097
2427 2414 2397 2381 2370 2361 2350 2336 2320 2306 2292 2276 2256 2239 2225 2208 2193 2177 2159 2141 2125 2114 2108 2101 2090 2080 2074 2068 2059 2051 2047 2046 2046 2043 2037 2027 2016 2007 1999 1987 1969 1948 1930 1918 1908 1892 1877 1861 1848 1839 1829 1822 1816 1807 1795 1784 1779 1775 1775 1776 1782 1788 1798 1808 1818 1827 1838 1852 1867 1883 1898 1909 1918 1917 1915 1915 1910 1896 1869 1857 1850 1835 1819 1823 1824 1818 1817 1819 1830 1840 1849 1866 1915 1929 1953 1971 1977 2010 2024 2046 2065 2071 2081 2088 2112 2125 2141 2155 2165 2179 2198 2208 2231 2265 2267 2268 2299 2317 2320 2299 2293 2314 2307 2313 2308 2299 2292 2231 2218 2163 2149 2117 2099 2064 2065 2057 2044 2038 2052 2074 2106 2114 2122 2134 2160 2193 2199 2210 2203 2206 2184 2164 2151 2136 2140 2111 2100
2433 2420 2399 2386 2371 2347 2333 2322 2308 2298 2286 2267 2248 2232 2216 2201 2186 2172 2158 2144 2133 2124 2117 2109 2100 2092 2087 2081 2077 2073 2073 2073 2072 2069 2057 2043 2024 2006 1995 1984 1964 1943 1932 1922 1911 1898 1883 1871 1862 1851 1840 1833 1827 1817 1806 1799 1793 1788 1784 1786 1790 1796 1805 1815 1824 1833 1843 1857 1875 1894 1904 1913 1920 1928 1910 1923 1911 1897 1888 1872 1865 1864 1852 1849 1842 1839 1839 1839 1851 1865 1877 1902 1914 1941 1972 1975 2000 2025 2061 2065 2079 2088 2094 2104 2117 2143 2174 2188 2201 2199 2224 2249 2255 2292 2294 2316 2370 2387 2384 2380 2355 2372 2367 2379 2373 2332 2310 2289 2272 2257 2191 2188 2168 2127 2120 2093 2092 2106 2101 2104 2115 2138 2130 2158 2189 2206 2225 2239 2250 2245 2246 2227 2230 2187 2177 2139 2126
2439 2431 2413 2393 2375 2354 2333 2314 2300 2284 2272 2259 2240 2223 2209 2196 2183 2174 2164 2153 2144 2138 2131 2119 2107 2099 2093 2089 2085 2091 2098 2098 2096 2090 2077 2054 2028 2005 1993 1984 1971 1955 1942 1931 1919 1908 1896 1885 1876 1867 1855 1843 1834 1825 1814 1804 1797 1795 1794 1795 1798 1805 1813 1822 1830 1842 1855 1865 1874 1890 1905 1920 1933 1933 1926 1943 1920 1906 1897 1889 1885 1878 1874 1864 1856 1856 1863 1863 1869 1881 1904 1917 1939 1958 1975 1998 2022 2056 2075 2088 2101 2105 2109 2116 2136 2170 2194 2221 2235 2249 2251 2277 2287 2314 2333 2364 2384 2383 2382 2377 2381 2410 2407 2399 2372 2364 2335 2310 2297 2284 2260 2241 2218 2188 2139 2124 2129 2108 2106 2146 2148 2168 2173 2188 2199 2218 2239 2258 2271 2270 2264 2263 2262 2230 2222 2208 2149
2438 2425 2413 2400 2377 2354 2332 2314 2303 2288 2270 2253 2236 2221 2209 2198 2189 2178 2169 2162 2156 2152 2148 2142 2133 2117 2104 2101 2103 2112 2120 2117 2109 2102 2091 2051 2009 2003 2002 1993 1981 1965 1950 1941 1932 1922 1911 1898 1886 1875 1864 1852 1842 1831 1820 1808 1804 1801 1804 1808 1813 1821 1830 1834 1841 1852 1864 1881 1895 1901 1915 1932 1950 1949 1947 1959 1952 1941 1922 1912 1902 1898 1900 1889 1881 1872 1874 1884 1891 1900 1914 1933 1960 1969 1994 2015 2045 2073 2088 2105 2114 2124 2125 2172 2199 2211 2222 2238 2256 2261 2282 2296 2303 2323 2336 2361 2378 2393 2381 2392 2388 2396 2392 2395 2381 2367 2357 2324 2313 2291 2284 2265 2240 2227 2205 2201 2193 2188 2198 2202 2195 2192 2196 2195 2213 2231 2254 2274 2277 2278 2271 2272 2267 2272 2232 2220 2202
2428 2417 2405 2392 2372 2351 2331 2316 2303 2288 2273 2258 2244 2235 2229 2226 2215 2195 2181 2175 2175 2178 2182 2185 2195 2208 2176 2142 2154 2168 2162 2154 2155 2157 2142 2125 2087 2036 2011 2003 1987 1972 1957 1950 1944 1933 1921 1909 1898 1886 1874 1862 1848 1834 1822 1815 1811 1811 1814 1818 1827 1838 1848 1856 1865 1877 1899 1925 1935 1950 1963 1955 1956 1970 1987 1986 1986 1969 1958 1951 1948 1934 1907 1900 1899 1900 1896 1900 1906 1912 1925 1945 1965 1996 2006 2034 2075 2080 2105 2118 2143 2163 2179 2227 2232 2254 2250 2262 2267 2272 2281 2309 2319 2327 2359 2381 2356 2367 2376 2384 2379 2385 2392 2387 2383 2375 2367 2355 2333 2323 2284 2278 2278 2266 2265 2271 2262 2266 2253 2248 2238 2219 2216 2227 2226 2247 2268 2282 2284 2293 2303 2314 2301 2302 2282 2282 2238
2424 2413 2402 2389 2372 2358 2335 2318 2308 2297 2285 2274 2268 2260 2251 2245 2233 2219 2208 2200 2199 2206 2210 2220 2237 2248 2249 2234 2214 2203 2201 2194 2175 2153 2136 2116 2088 2053 2031 2017 2002 1986 1971 1957 1946 1938 1926 1914 1902 1891 1879 1867 1857 1843 1830 1824 1822 1824 1826 1829 1838 1852 1863 1872 1883 1896 1922 1954 1973 1975 1978 1966 1983 1988 1995 2002 2006 2004 2002 1990 1977 1970 1941 1946 1933 1933 1935 1925 1918 1941 1946 1947 1980 2007 2032 2052 2080 2099 2117 2153 2160 2181 2228 2250 2274 2283 2296 2296 2289 2298 2326 2327 2334 2351 2364 2369 2374 2379 2382 2371 2362 2355 2392 2397 2383 2378 2374 2375 2350 2330 2330 2302 2305 2307 2297 2292 2296 2280 2267 2264 2262 2250 2248 2256 2249 2268 2276 2298 2311 2332 2327 2384 2385 2348 2331 2295 2274
2423 2420 2413 2404 2387 2351 2334 2325 2314 2304 2301 2298 2292 2286 2275 2262 2250 2239 2230 2227 2230 2235 2243 2258 2272 2278 2279 2260 2231 2222 2222 2210 2192 2167 2141 2119 2096 2072 2049 2034 2020 2002 1986 1972 1958 1941 1931 1922 1909 1894 1880 1869 1860 1850 1839 1829 1828 1830 1836 1845 1856 1867 1878 1889 1903 1924 1942 1949 1984 1996 1994 1991 1997 2016 2026 2048 2065 2070 2057 2035 2032 2039 2021 1989 1973 1965 1951 1947 1949 1946 1942 1979 2006 2024 2043 2066 2080 2117 2143 2186 2185 2204 2233 2261 2282 2290 2296 2305 2317 2327 2335 2333 2348 2364 2372 2385 2393 2401 2402 2408 2407 2419 2411 2406 2416 2420 2409 2396 2383 2369 2362 2348 2366 2363 2338 2332 2311 2312 2300 2293 2290 2287 2288 2280 2282 2303 2305 2325 2334 2357 2405 2443 2437 2423 2411 2330 2303
2425 2428 2429 2425 2411 2398 2391 2374 2361 2349 2333 2317 2309 2298 2289 2279 2264 2249 2246 2250 2255 2259 2266 2277 2287 2292 2286 2276 2249 2228 2225 2218 2193 2164 2147 2125 2096 2075 2061 2046 2030 2015 2003 1991 1979 1969 1951 1926 1909 1905 1892 1867 1859 1852 1842 1836 1836 1841 1848 1860 1874 1887 1900 1914 1925 1941 1958 1961 1993 1992 1993 2022 2034 2059 2071 2076 2103 2122 2118 2091 2080 2074 2049 2029 2025 2012 1978 1974 1981 1993 1998 2015 2022 2037 2066 2084 2093 2127 2187 2185 2176 2191 2224 2259 2275 2303 2314 2320 2319 2334 2345 2356 2358 2367 2389 2409 2427 2442 2460 2474 2474 2479 2460 2458 2457 2457 2446 2426 2422 2414 2370 2370 2371 2369 2358 2354 2352 2325 2319 2319 2339 2344 2326 2311 2310 2331 2344 2362 2382 2420 2448 2459 2465 2456 2452 2408 2320
2435 2439 2443 2442 2440 2435 2424 2406 2395 2378 2355 2336 2318 2306 2299 2290 2281 2276 2275 2283 2290 2298 2305 2308 2309 2290 2274 2257 2240 2227 2214 2198 2181 2162 2143 2122 2104 2087 2071 2055 2040 2027 2013 2004 2000 1996 1993 1973 1950 1931 1903 1896 1910 1893 1855 1843 1849 1852 1862 1879 1890 1903 1921 1934 1945 1954 1960 1982 1994 2013 2031 2040 2079 2073 2094 2106 2119 2140 2153 2146 2149 2129 2101 2089 2057 2041 2047 2033 2027 2031 2036 2035 2059 2078 2087 2093 2127 2135 2188 2203 2188 2214 2243 2265 2285 2305 2323 2331 2343 2366 2386 2385 2387 2397 2412 2430 2448 2475 2494 2495 2494 2494 2484 2478 2480 2472 2475 2457 2459 2456 2417 2395 2387 2392 2387 2386 2377 2378 2384 2357 2352 2354 2348 2346 2348 2371 2396 2422 2443 2461 2494 2490 2485 2475 2463 2446 2351
2437 2444 2446 2449 2449 2447 2437 2424 2418 2405 2376 2350 2334 2322 2312 2302 2294 2297 2306 2313 2317 2320 2320 2312 2298 2281 2261 2245 2233 2213 2195 2180 2163 2151 2137 2125 2109 2090 2074 2063 2051 2037 2026 2018 2011 2005 1993 1968 1954 1954 1952 1956 1938 1899 1879 1870 1879 1886 1898 1910 1918 1927 1937 1947 1955 1961 1968 1987 2018 2029 2045 2071 2082 2098 2108 2136 2146 2171 2193 2195 2189 2177 2159 2136 2120 2112 2111 2082 2063 2062 2059 2077 2101 2108 2116 2125 2134 2193 2213 2232 2228 2259 2278 2295 2312 2323 2336 2352 2368 2379 2389 2403 2412 2420 2436 2453 2471 2481 2489 2497 2501 2498 2494 2487 2488 2487 2493 2478 2459 2462 2452 2412 2393 2397 2399 2424 2421 2424 2433 2438 2450 2454 2456 2370 2377 2445 2444 2459 2478 2502 2509 2511 2501 2490 2479 2458 2425
2430 2438 2442 2446 2449 2447 2445 2447 2446 2447 2420 2381 2355 2347 2334 2316 2310 2315 2318 2319 2319 2319 2313 2303 2290 2273 2254 2238 2222 2204 2187 2170 2158 2145 2132 2118 2103 2088 2075 2063 2052 2042 2032 2023 2017 2008 1996 1989 1981 1975 1967 1944 1924 1911 1903 1901 1903 1911 1923 1936 1942 1948 1956 1964 1970 1974 1980 2014 2036 2040 2057 2079 2093 2107 2131 2139 2170 2187 2200 2212 2212 2200 2185 2171 2156 2153 2153 2150 2132 2115 2104 2110 2121 2126 2193 2184 2206 2218 2244 2252 2263 2284 2294 2303 2320 2336 2354 2371 2383 2395 2408 2420 2432 2443 2454 2463 2473 2484 2496 2505 2510 2516 2518 2521 2526 2528 2498 2487 2479 2477 2471 2461 2459 2467 2474 2476 2469 2467 2481 2489 2503 2504 2504 2510 2479 2484 2495 2521 2523 2533 2539 2545 2526 2523 2511 2467 2421
2424 2431 2439 2444 2448 2451 2451 2454 2461 2462 2448 2428 2406 2383 2369 2348 2336 2330 2327 2323 2318 2307 2298 2289 2276 2260 2243 2225 2208 2191 2177 2164 2152 2139 2125 2110 2096 2083 2073 2063 2053 2043 2035 2027 2019 2012 2006 2001 1996 1985 1967 1950 1934 1928 1928 1932 1934 1952 1968 1968 1969 1970 1974 1978 1984 1991 2000 2015 2031 2051 2068 2077 2094 2111 2124 2133 2162 2191 2211 2225 2219 2217 2210 2192 2192 2188 2189 2193 2185 2177 2143 2143 2184 2218 2212 2209 2227 2234 2257 2277 2294 2303 2307 2310 2317 2336 2359 2381 2399 2412 2425 2436 2451 2467 2475 2479 2487 2499 2509 2516 2522 2528 2539 2551 2566 2576 2566 2540 2514 2506 2507 2514 2518 2518 2520 2529 2532 2560 2564 2549 2541 2531 2529 2545 2548 2551 2540 2562 2563 2559 2558 2572 2569 2542 2517 2507 2443
2422 2428 2434 2441 2445 2449 2453 2456 2463 2466 2462 2451 2432 2414 2398 2381 2367 2355 2343 2328 2312 2294 2281 2270 2259 2245 2228 2215 2200 2185 2171 2157 2144 2130 2117 2105 2092 2081 2071 2058 2047 2041 2035 2028 2021 2015 2011 2008 1998 1982 1963 1946 1941 1938 1945 1956 1975 1992 1996 1996 1992 1986 1986 1991 1999 2007 2017 2027 2038 2046 2060 2074 2088 2102 2117 2138 2169 2199 2220 2235 2245 2255 2255 2233 2227 2222 2232 2225 2221 2213 2210 2241 2257 2256 2245 2242 2236 2259 2279 2295 2302 2316 2323 2331 2342 2359 2379 2390 2399 2410 2420 2439 2458 2477 2495 2503 2511 2521 2532 2540 2549 2554 2559 2583 2604 2612 2612 2596 2589 2528 2534 2542 2554 2591 2584 2585 2587 2589 2599 2593 2594 2591 2588 2564 2555 2554 2571 2580 2605 2607 2600 2606 2605 2587 2547 2512 2493
2420 2425 2431 2437 2442 2446 2450 2454 2459 2463 2458 2446 2432 2416 2400 2388 2375 2361 2348 2335 2316 2293 2272 2253 2238 2225 2217 2207 2193 2178 2163 2148 2136 2123 2110 2098 2087 2078 2068 2059 2050 2041 2033 2030 2027 2025 2021 2012 2001 1982 1964 1956 1956 1964 1973 1987 1998 2006 2011 2009 2002 2004 2011 2015 2020 2027 2034 2039 2051 2062 2074 2085 2100 2119 2136 2149 2159 2206 2237 2251 2266 2285 2279 2267 2258 2264 2235 2239 2243 2240 2247 2256 2262 2275 2275 2281 2291 2297 2316 2305 2289 2302 2334 2364 2375 2385 2393 2401 2411 2423 2442 2460 2474 2491 2510 2529 2543 2545 2547 2565 2584 2592 2597 2616 2623 2634 2625 2629 2610 2600 2590 2595 2584 2587 2589 2615 2619 2624 2607 2610 2616 2616 2620 2606 2612 2625 2620 2641 2635 2642 2648 2648 2639 2609 2591 2546 2512
2418 2422 2427 2432 2438 2443 2447 2449 2453 2453 2449 2439 2425 2408 2392 2380 2368 2356 2344 2331 2316 2292 2269 2248 2234 2224 2214 2203 2188 2171 2157 2143 2131 2118 2105 2093 2082 2072 2066 2059 2050 2042 2036 2032 2030 2027 2021 2014 1999 1983 1970 1969 1973 1983 1995 2001 2009 2017 2020 2018 2018 2020 2024 2032 2037 2042 2047 2055 2064 2078 2089 2102 2117 2130 2142 2155 2167 2174 2234 2262 2286 2304 2306 2307 2306 2280 2282 2258 2262 2262 2266 2282 2290 2332 2335 2335 2338 2322 2305 2326 2320 2337 2356 2372 2388 2402 2412 2424 2445 2469 2485 2500 2510 2521 2530 2538 2546 2554 2568 2582 2593 2603 2651 2661 2666 2661 2665 2659 2659 2655 2645 2645 2646 2633 2635 2640 2644 2645 2639 2639 2642 2648 2629 2634 2652 2660 2676 2679 2681 2685 2691 2685 2659 2644 2598 2572 2537
2414 2418 2424 2429 2435 2440 2443 2444 2443 2440 2436 2430 2414 2398 2383 2370 2358 2346 2334 2321 2306 2289 2271 2254 2239 2227 2213 2203 2192 2173 2153 2138 2124 2114 2103 2089 2078 2070 2064 2058 2051 2044 2038 2033 2028 2022 2015 2006 1993 1981 1980 1982 1995 2008 2015 2021 2026 2030 2029 2028 2030 2035 2041 2045 2051 2055 2063 2075 2087 2098 2106 2116 2125 2135 2148 2160 2171 2226 2246 2273 2302 2311 2331 2328 2327 2303 2300 2291 2284 2285 2283 2296 2356 2358 2363 2368 2361 2353 2357 2351 2344 2348 2353 2370 2390 2412 2431 2453 2473 2493 2516 2531 2546 2560 2569 2568 2561 2560 2596 2653 2642 2609 2688 2689 2704 2707 2714 2710 2703 2693 2685 2680 2677 2675 2684 2686 2684 2683 2686 2692 2691 2688 2681 2681 2701 2705 2715 2722 2731 2731 2715 2701 2681 2660 2613 2596 2553
2409 2413 2418 2424 2429 2433 2435 2435 2434 2432 2427 2419 2406 2392 2376 2362 2349 2337 2326 2313 2300 2285 2272 2257 2237 2220 2207 2194 2180 2164 2145 2129 2117 2108 2098 2087 2078 2072 2066 2059 2053 2047 2040 2033 2026 2019 2010 1999 1988 1988 1995 2009 2020 2029 2036 2039 2041 2042 2042 2045 2046 2047 2053 2060 2068 2076 2085 2095 2104 2111 2117 2123 2134 2148 2164 2182 2225 2241 2264 2291 2314 2332 2339 2342 2342 2348 2348 2318 2317 2314 2319 2367 2399 2405 2402 2406 2397 2399 2392 2355 2367 2370 2377 2390 2415 2444 2468 2486 2499 2510 2522 2538 2555 2572 2589 2588 2584 2641 2713 2752 2783 2785 2788 2746 2761 2760 2764 2772 2777 2747 2738 2734 2724 2727 2729 2722 2729 2723 2717 2710 2702 2704 2712 2722 2732 2737 2741 2742 2747 2735 2731 2711 2688 2674 2660 2615 2563
2407 2410 2413 2416 2420 2422 2424 2426 2426 2422 2416 2408 2397 2382 2366 2353 2343 2331 2319 2306 2292 2278 2264 2245 2227 2215 2201 2186 2169 2151 2138 2124 2111 2100 2092 2083 2079 2075 2069 2063 2057 2049 2041 2034 2025 2017 2011 2007 2005 2011 2020 2029 2036 2043 2051 2053 2054 2056 2060 2062 2065 2069 2072 2078 2086 2095 2104 2111 2118 2122 2128 2138 2150 2163 2227 2231 2267 2290 2295 2318 2336 2349 2351 2357 2380 2402 2394 2384 2383 2376 2384 2399 2418 2421 2434 2426 2426 2403 2404 2406 2410 2423 2424 2422 2437 2454 2474 2494 2512 2526 2532 2545 2617 2685 2692 2696 2707 2718 2730 2754 2778 2791 2791 2801 2796 2787 2779 2779 2779 2780 2770 2760 2745 2734 2727 2726 2722 2720 2717 2710 2709 2678 2697 2721 2734 2737 2739 2743 2744 2738 2727 2717 2730 2677 2668 2635 2612
2406 2407 2409 2411 2411 2413 2414 2413 2411 2407 2403 2395 2383 2370 2358 2347 2333 2321 2310 2296 2281 2269 2258 2239 2219 2205 2190 2174 2158 2144 2132 2120 2107 2095 2088 2083 2079 2076 2072 2068 2062 2054 2044 2035 2024 2013 2011 2012 2021 2030 2039 2048 2052 2057 2060 2064 2066 2066 2071 2079 2085 2088 2092 2097 2102 2113 2122 2130 2135 2141 2151 2161 2178 2216 2258 2283 2290 2302 2312 2330 2348 2350 2372 2387 2406 2434 2442 2444 2452 2459 2461 2449 2423 2427 2433 2444 2448 2452 2442 2423 2424 2429 2437 2450 2456 2468 2494 2525 2561 2560 2608 2633 2678 2703 2718 2732 2737 2741 2752 2767 2780 2786 2788 2789 2790 2791 2788 2783 2781 2778 2766 2753 2738 2722 2715 2711 2712 2710 2705 2695 2686 2677 2689 2705 2714 2716 2713 2718 2719 2720 2717 2713 2709 2706 2664 2653 2653
2401 2403 2404 2404 2405 2405 2402 2400 2396 2395 2390 2383 2371 2358 2347 2336 2323 2309 2297 2284 2270 2253 2238 2221 2206 2194 2179 2165 2152 2138 2125 2114 2103 2094 2088 2085 2081 2078 2075 2075 2070 2055 2044 2034 2023 2018 2020 2029 2038 2048 2056 2062 2063 2063 2067 2071 2072 2074 2079 2086 2094 2101 2108 2117 2125 2135 2145 2152 2159 2164 2170 2185 2236 2273 2284 2295 2313 2313 2329 2348 2346 2367 2387 2408 2430 2463 2490 2486 2482 2477 2473 2468 2444 2436 2454 2462 2468 2484 2477 2471 2459 2440 2446 2483 2499 2516 2534 2560 2574 2612 2622 2657 2705 2727 2743 2748 2756 2761 2768 2774 2779 2779 2779 2779 2781 2780 2778 2775 2771 2763 2752 2741 2727 2711 2700 2695 2693 2689 2686 2673 2665 2663 2673 2688 2697 2701 2698 2698 2697 2695 2694 2692 2693 2686 2684 2673 2663
2394 2394 2394 2395 2397 2398 2395 2390 2387 2382 2377 2368 2358 2348 2337 2323 2310 2300 2289 2277 2259 2239 2220 2200 2186 2177 2167 2155 2141 2128 2117 2106 2099 2093 2092 2090 2089 2086 2083 2080 2072 2058 2044 2034 2026 2027 2034 2042 2050 2057 2063 2069 2074 2076 2079 2077 2076 2077 2081 2089 2098 2114 2128 2142 2154 2161 2168 2174 2178 2179 2200 2235 2275 2286 2298 2307 2322 2325 2343 2367 2370 2393 2419 2438 2472 2487 2493 2507 2514 2509 2504 2488 2477 2464 2458 2475 2486 2501 2506 2507 2494 2491 2483 2516 2534 2540 2577 2603 2625 2654 2705 2709 2747 2766 2768 2767 2763 2766 2769 2772 2772 2772 2772 2770 2769 2766 2762 2757 2751 2744 2736 2720 2703 2695 2688 2672 2655 2657 2655 2651 2648 2644 2650 2661 2673 2676 2681 2676 2674 2674 2674 2677 2678 2682 2686 2676 2667
2385 2386 2384 2384 2387 2388 2385 2381 2377 2371 2364 2356 2348 2339 2324 2309 2298 2289 2278 2264 2247 2231 2215 2193 2174 2164 2152 2139 2128 2117 2108 2101 2096 2091 2089 2088 2087 2085 2083 2081 2073 2061 2047 2036 2039 2042 2046 2051 2053 2061 2069 2076 2081 2083 2081 2079 2079 2082 2089 2100 2117 2133 2150 2162 2173 2183 2196 2208 2222 2249 2283 2277 2288 2303 2318 2323 2331 2348 2361 2385 2402 2444 2460 2470 2481 2506 2517 2523 2522 2522 2522 2512 2490 2482 2483 2490 2495 2507 2513 2510 2505 2507 2517 2536 2559 2582 2602 2635 2659 2701 2713 2732 2741 2755 2770 2765 2763 2762 2760 2760 2760 2761 2760 2758 2753 2748 2744 2739 2733 2724 2705 2687 2679 2674 2662 2647 2634 2634 2631 2628 2627 2624 2624 2631 2638 2649 2653 2654 2651 2655 2660 2663 2670 2673 2677 2671 2669
2376 2376 2375 2374 2375 2373 2371 2368 2363 2357 2351 2345 2337 2325 2308 2296 2286 2277 2261 2244 2228 2213 2199 2183 2164 2148 2138 2127 2115 2106 2100 2095 2091 2086 2082 2080 2081 2079 2078 2075 2069 2056 2048 2047 2047 2050 2051 2051 2053 2059 2065 2073 2077 2077 2077 2077 2083 2090 2099 2110 2127 2146 2160 2169 2194 2217 2239 2250 2266 2294 2316 2319 2327 2326 2328 2340 2343 2361 2377 2400 2446 2460 2478 2485 2499 2525 2524 2524 2525 2532 2538 2538 2535 2505 2486 2497 2507 2515 2516 2521 2519 2528 2541 2560 2578 2600 2633 2659 2689 2710 2722 2743 2753 2756 2759 2755 2754 2753 2750 2748 2746 2745 2743 2740 2737 2735 2731 2726 2713 2695 2681 2669 2658 2646 2635 2625 2613 2609 2605 2604 2601 2601 2598 2600 2611 2620 2630 2632 2635 2637 2639 2647 2658 2664 2669 2670 2661
2368 2367 2366 2363 2361 2360 2357 2354 2350 2346 2338 2331 2321 2309 2297 2286 2275 2263 2246 2228 2210 2197 2182 2161 2147 2136 2125 2115 2107 2099 2094 2089 2083 2078 2075 2073 2072 2071 2070 2067 2060 2053 2046 2044 2043 2043 2045 2046 2047 2055 2062 2065 2069 2074 2075 2079 2087 2099 2107 2113 2133 2166 2187 2207 2228 2243 2263 2283 2296 2304 2342 2353 2345 2348 2355 2358 2361 2375 2403 2426 2449 2470 2482 2502 2519 2519 2525 2527 2538 2545 2550 2544 2531 2514 2512 2510 2499 2513 2518 2524 2539 2549 2555 2570 2587 2620 2652 2672 2687 2707 2722 2737 2746 2750 2748 2745 2743 2740 2737 2734 2730 2728 2727 2725 2724 2722 2720 2710 2697 2682 2667 2655 2646 2627 2606 2593 2586 2581 2577 2577 2571 2566 2568 2568 2578 2585 2604 2610 2617 2618 2622 2631 2645 2658 2662 2665 2660
2362 2360 2358 2356 2354 2351 2347 2343 2338 2332 2325 2317 2307 2297 2286 2276 2266 2252 2235 2215 2196 2179 2163 2151 2139 2128 2120 2113 2105 2097 2089 2082 2077 2071 2067 2064 2062 2061 2058 2054 2047 2038 2038 2038 2037 2037 2038 2039 2043 2050 2059 2067 2073 2080 2087 2091 2095 2101 2111 2139 2173 2197 2223 2235 2245 2284 2327 2346 2346 2351 2362 2363 2369 2388 2391 2394 2405 2419 2419 2441 2461 2477 2489 2504 2523 2527 2529 2540 2549 2552 2556 2559 2542 2537 2529 2525 2520 2511 2526 2538 2549 2553 2562 2583 2611 2636 2669 2685 2694 2716 2724 2744 2744 2744 2741 2738 2734 2728 2722 2721 2720 2717 2712 2709 2704 2702 2697 2688 2678 2666 2654 2637 2616 2600 2587 2573 2560 2552 2546 2547 2541 2544 2538 2545 2542 2554 2573 2587 2594 2600 2612 2618 2633 2649 2657 2658 2657
2353 2353 2352 2350 2347 2343 2338 2331 2324 2316 2310 2303 2295 2286 2276 2265 2252 2240 2223 2206 2188 2173 2162 2153 2142 2130 2118 2109 2101 2095 2088 2082 2075 2066 2060 2057 2055 2051 2046 2039 2034 2034 2034 2033 2033 2034 2036 2038 2045 2054 2063 2072 2086 2099 2104 2105 2117 2126 2152 2190 2204 2218 2227 2245 2301 2340 2351 2365 2370 2376 2383 2383 2396 2398 2401 2418 2436 2441 2444 2451 2459 2476 2488 2498 2511 2517 2534 2539 2548 2551 2556 2561 2566 2554 2553 2543 2534 2529 2541 2546 2555 2571 2587 2598 2634 2661 2675 2690 2701 2722 2734 2735 2735 2733 2731 2729 2724 2718 2713 2710 2707 2703 2699 2694 2690 2685 2680 2676 2661 2644 2625 2609 2596 2580 2565 2550 2537 2526 2519 2525 2527 2526 2529 2529 2531 2532 2546 2563 2574 2582 2590 2610 2626 2645 2653 2652 2649
2349 2348 2345 2342 2339 2335 2329 2320 2309 2300 2291 2283 2277 2267 2258 2249 2239 2226 2214 2202 2187 2173 2161 2151 2138 2125 2115 2105 2101 2097 2093 2089 2081 2071 2062 2057 2050 2045 2038 2034 2031 2031 2032 2031 2031 2034 2038 2046 2055 2063 2074 2087 2100 2111 2122 2130 2145 2166 2181 2189 2202 2219 2260 2319 2346 2356 2363 2362 2366 2372 2382 2390 2391 2393 2402 2412 2427 2436 2438 2443 2455 2467 2477 2487 2493 2501 2517 2529 2538 2543 2546 2555 2558 2558 2555 2556 2549 2546 2548 2552 2567 2583 2602 2620 2656 2674 2687 2697 2713 2725 2727 2727 2725 2719 2716 2711 2704 2699 2695 2696 2696 2694 2691 2690 2686 2682 2672 2647 2630 2614 2596 2581 2569 2559 2544 2527 2516 2508 2508 2506 2510 2510 2514 2518 2516 2518 2525 2538 2556 2564 2577 2609 2627 2647 2646 2646 2643
2345 2342 2339 2336 2331 2325 2314 2305 2296 2283 2271 2262 2253 2245 2240 2235 2229 2221 2212 2200 2189 2174 2162 2154 2143 2125 2110 2104 2101 2099 2098 2096 2093 2085 2075 2066 2059 2049 2043 2036 2035 2034 2035 2037 2039 2045 2054 2061 2069 2078 2089 2098 2108 2115 2128 2141 2157 2175 2187 2195 2208 2266 2320 2328 2337 2342 2342 2352 2353 2364 2373 2381 2383 2392 2400 2412 2417 2425 2426 2432 2440 2454 2465 2473 2479 2487 2504 2517 2523 2531 2534 2538 2541 2543 2550 2556 2559 2556 2556 2564 2570 2583 2605 2641 2663 2683 2693 2699 2713 2719 2718 2716 2712 2706 2699 2693 2689 2684 2679 2679 2682 2684 2685 2684 2684 2657 2610 2597 2595 2587 2570 2556 2549 2538 2521 2509 2500 2492 2487 2487 2490 2494 2494 2495 2501 2502 2509 2523 2538 2552 2562 2580 2619 2638 2634 2630 2635
2337 2333 2330 2327 2321 2309 2298 2288 2278 2266 2256 2247 2240 2235 2229 2225 2219 2214 2208 2199 2187 2172 2158 2143 2130 2117 2107 2104 2103 2103 2103 2100 2097 2092 2086 2081 2074 2062 2050 2046 2043 2040 2041 2043 2053 2063 2070 2077 2083 2090 2099 2108 2113 2120 2128 2140 2155 2171 2189 2220 2276 2312 2320 2326 2329 2324 2328 2333 2339 2346 2358 2365 2371 2381 2390 2390 2401 2407 2408 2408 2418 2433 2445 2459 2464 2477 2489 2497 2504 2509 2518 2515 2521 2530 2541 2551 2562 2567 2570 2571 2577 2590 2614 2643 2673 2687 2691 2700 2704 2705 2703 2701 2695 2685 2679 2675 2672 2669 2663 2657 2658 2664 2615 2585 2579 2553 2556 2565 2572 2569 2557 2540 2527 2515 2504 2492 2482 2476 2473 2473 2473 2473 2473 2478 2486 2491 2499 2506 2520 2536 2546 2554 2580 2604 2610 2617 2622
2329 2323 2318 2311 2303 2293 2280 2268 2258 2250 2243 2236 2231 2227 2223 2218 2213 2209 2203 2195 2182 2166 2155 2143 2126 2115 2110 2106 2107 2107 2106 2106 2104 2101 2098 2091 2082 2069 2058 2055 2052 2052 2055 2064 2071 2074 2078 2085 2092 2101 2110 2119 2124 2131 2156 2188 2215 2213 2228 2285 2301 2304 2313 2317 2316 2314 2315 2319 2323 2330 2335 2346 2354 2365 2368 2370 2375 2386 2388 2388 2389 2400 2410 2431 2439 2450 2464 2471 2480 2487 2492 2495 2503 2515 2531 2543 2564 2569 2574 2577 2581 2592 2614 2653 2672 2677 2688 2694 2694 2691 2688 2682 2675 2667 2661 2656 2653 2650 2646 2642 2633 2610 2577 2546 2543 2540 2538 2541 2542 2542 2537 2523 2509 2496 2485 2474 2467 2465 2465 2463 2460 2456 2461 2466 2476 2481 2484 2490 2501 2516 2524 2535 2553 2569 2597 2606 2611
2322 2317 2307 2297 2284 2269 2259 2248 2242 2236 2233 2229 2224 2219 2215 2212 2208 2202 2195 2186 2173 2159 2146 2134 2123 2113 2109 2109 2110 2111 2109 2108 2106 2104 2099 2095 2088 2081 2073 2070 2071 2072 2079 2087 2092 2095 2101 2112 2125 2129 2134 2131 2132 2146 2172 2226 2262 2268 2278 2286 2291 2293 2297 2301 2301 2303 2304 2305 2310 2312 2318 2325 2330 2345 2353 2353 2358 2364 2362 2367 2367 2366 2377 2396 2405 2414 2429 2443 2459 2467 2471 2476 2487 2498 2508 2528 2545 2565 2574 2581 2588 2600 2628 2651 2663 2681 2680 2683 2680 2676 2671 2665 2659 2654 2648 2638 2623 2618 2623 2609 2582 2562 2541 2534 2530 2525 2523 2515 2508 2507 2509 2503 2491 2480 2472 2464 2456 2455 2455 2455 2452 2450 2454 2461 2466 2468 2471 2475 2482 2490 2512 2531 2549 2573 2589 2596 2599
2306 2298 2288 2273 2261 2252 2244 2236 2231 2228 2226 2222 2217 2213 2209 2205 2201 2195 2188 2177 2166 2153 2142 2132 2122 2115 2110 2109 2110 2109 2109 2106 2102 2097 2095 2093 2090 2087 2090 2097 2104 2110 2114 2117 2118 2121 2127 2133 2139 2143 2142 2153 2192 2222 2241 2253 2264 2271 2277 2281 2282 2283 2284 2284 2284 2287 2288 2292 2290 2288 2296 2303 2309 2317 2332 2338 2339 2338 2341 2342 2345 2346 2355 2372 2382 2394 2409 2424 2439 2450 2452 2457 2478 2483 2491 2500 2525 2548 2566 2577 2591 2607 2631 2648 2654 2664 2668 2664 2663 2662 2654 2646 2641 2636 2630 2619 2607 2599 2574 2554 2549 2536 2524 2518 2513 2508 2502 2497 2496 2494 2491 2484 2473 2464 2458 2453 2448 2446 2448 2447 2444 2443 2448 2451 2456 2460 2460 2462 2467 2477 2503 2525 2548 2555 2579 2583 2587
2284 2271 2256 2250 2243 2238 2231 2226 2221 2219 2218 2215 2210 2206 2202 2199 2195 2188 2179 2170 2159 2150 2143 2134 2125 2117 2113 2112 2111 2109 2107 2105 2099 2095 2092 2089 2087 2090 2097 2106 2114 2121 2127 2131 2132 2130 2136 2143 2152 2158 2158 2186 2216 2246 2255 2261 2261 2265 2267 2269 2269 2269 2271 2271 2269 2269 2270 2271 2270 2273 2275 2284 2291 2301 2306 2312 2317 2323 2326 2326 2324 2327 2341 2358 2369 2375 2399 2407 2418 2426 2434 2451 2477 2481 2483 2471 2510 2522 2555 2568 2583 2608 2621 2635 2646 2650 2653 2652 2649 2644 2639 2631 2623 2615 2607 2598 2587 2573 2552 2531 2518 2511 2505 2501 2495 2487 2482 2481 2483 2483 2474 2463 2456 2450 2445 2441 2441 2439 2438 2438 2435 2435 2438 2443 2447 2452 2452 2456 2458 2472 2495 2512 2518 2530 2546 2561 2564
