ncols        111
nrows        71
xllcorner    12.022916666667
yllcorner    46.488750000000
cellsize     30
2166 2169 2174 2184 2194 2201 2210 2221 2227 2232 2235 2233 2231 2227 2227 2226 2227 2227 2229 2234 2240 2240 2241 2243 2246 2247 2248 2240 2229 2220 2214 2210 2207 2204 2200 2196 2194 2191 2186 2182 2182 2182 2182 2180 2175 2171 2169 2168 2166 2165 2164 2165 2169 2173 2179 2184 2189 2195 2204 2212 2220 2229 2239 2249 2259 2270 2280 2289 2296 2300 2304 2311 2317 2324 2326 2325 2318 2312 2308 2306 2304 2303 2303 2301 2295 2291 2286 2278 2269 2260 2252 2243 2234 2229 2226 2226 2227 2230 2232 2233 2235 2236 2238 2240 2242 2247 2252 2258 2263 2267 2271 
2152 2154 2157 2162 2172 2181 2193 2205 2209 2209 2210 2210 2209 2212 2215 2219 2223 2226 2229 2233 2236 2238 2241 2247 2252 2255 2250 2242 2232 2225 2220 2214 2209 2204 2202 2203 2202 2197 2190 2186 2185 2187 2188 2186 2184 2181 2178 2177 2177 2179 2182 2183 2183 2182 2183 2186 2191 2198 2206 2215 2225 2232 2240 2248 2257 2267 2276 2285 2292 2298 2303 2311 2321 2327 2331 2329 2323 2318 2315 2313 2309 2307 2306 2303 2298 2291 2283 2275 2267 2261 2253 2243 2238 2234 2234 2237 2240 2243 2241 2239 2239 2240 2242 2245 2252 2258 2263 2269 2273 2280 2291 
2138 2140 2144 2150 2156 2166 2176 2183 2190 2192 2192 2196 2198 2201 2205 2210 2215 2218 2219 2223 2228 2233 2237 2243 2251 2255 2252 2245 2240 2234 2229 2223 2217 2212 2208 2208 2205 2199 2194 2191 2191 2193 2194 2192 2191 2192 2193 2191 2191 2194 2201 2204 2202 2198 2198 2198 2198 2204 2211 2220 2227 2232 2238 2245 2252 2264 2279 2288 2294 2301 2308 2315 2322 2329 2332 2330 2329 2326 2323 2319 2313 2310 2307 2303 2296 2291 2286 2277 2269 2263 2258 2252 2245 2242 2245 2248 2252 2254 2250 2247 2246 2245 2250 2257 2263 2267 2274 2281 2290 2299 2310 
2126 2127 2129 2136 2140 2149 2158 2166 2169 2173 2179 2185 2190 2193 2196 2202 2206 2208 2212 2216 2219 2224 2228 2237 2248 2252 2253 2252 2248 2245 2239 2232 2227 2219 2216 2216 2210 2205 2201 2198 2197 2198 2198 2198 2199 2203 2204 2206 2208 2211 2215 2215 2214 2212 2210 2211 2212 2215 2220 2225 2230 2235 2239 2243 2252 2263 2276 2289 2298 2306 2314 2322 2330 2335 2338 2339 2339 2336 2329 2322 2316 2308 2304 2300 2296 2292 2288 2282 2273 2267 2261 2260 2260 2262 2265 2266 2268 2265 2261 2256 2252 2256 2262 2267 2271 2276 2283 2292 2305 2326 2342 
2120 2123 2124 2126 2129 2135 2142 2150 2156 2162 2168 2176 2182 2187 2191 2195 2199 2202 2206 2210 2214 2219 2227 2237 2247 2252 2253 2255 2254 2249 2243 2239 2235 2231 2226 2221 2217 2214 2209 2206 2204 2201 2203 2205 2209 2212 2214 2215 2216 2218 2220 2220 2219 2219 2218 2218 2221 2227 2230 2234 2238 2240 2245 2255 2264 2272 2281 2290 2300 2311 2320 2327 2335 2344 2347 2351 2349 2345 2338 2331 2322 2313 2305 2298 2293 2291 2287 2280 2273 2268 2267 2267 2270 2275 2279 2280 2277 2271 2263 2259 2258 2261 2267 2274 2281 2288 2297 2310 2329 2352 2373 
2120 2120 2120 2122 2124 2130 2137 2143 2151 2156 2161 2170 2178 2182 2185 2188 2190 2193 2199 2206 2212 2218 2226 2239 2247 2253 2255 2256 2254 2251 2247 2243 2241 2237 2232 2228 2222 2220 2220 2217 2214 2212 2210 2213 2216 2220 2222 2222 2223 2224 2223 2224 2224 2225 2226 2226 2228 2234 2240 2246 2251 2255 2257 2263 2271 2278 2284 2295 2308 2316 2323 2334 2345 2350 2357 2360 2359 2356 2350 2340 2331 2320 2310 2299 2294 2291 2287 2280 2274 2271 2273 2276 2280 2283 2287 2291 2287 2280 2272 2264 2265 2267 2277 2288 2304 2319 2327 2337 2359 2382 2390 
2120 2122 2120 2119 2122 2128 2139 2147 2150 2154 2159 2167 2174 2178 2182 2185 2185 2187 2193 2204 2213 2220 2228 2236 2247 2252 2254 2256 2257 2255 2254 2252 2249 2245 2242 2238 2235 2233 2231 2228 2224 2222 2221 2223 2226 2229 2231 2232 2232 2232 2233 2234 2238 2243 2245 2242 2245 2251 2257 2264 2271 2275 2279 2283 2285 2288 2294 2306 2317 2326 2334 2343 2350 2354 2359 2363 2363 2359 2353 2344 2333 2324 2314 2307 2300 2295 2290 2285 2280 2279 2280 2285 2291 2293 2294 2296 2296 2290 2282 2275 2273 2280 2293 2317 2337 2346 2356 2372 2388 2399 2402 
2121 2125 2126 2124 2127 2136 2146 2152 2154 2156 2161 2168 2172 2176 2180 2183 2185 2188 2196 2206 2214 2220 2225 2232 2241 2248 2252 2256 2257 2257 2259 2259 2256 2254 2252 2251 2249 2245 2241 2237 2235 2232 2231 2234 2239 2243 2244 2244 2244 2244 2245 2249 2254 2258 2261 2265 2270 2274 2278 2282 2287 2291 2295 2300 2303 2304 2309 2317 2325 2333 2341 2349 2356 2361 2367 2370 2369 2364 2353 2343 2334 2324 2315 2311 2308 2304 2295 2290 2286 2285 2287 2293 2298 2301 2304 2306 2307 2300 2290 2286 2285 2300 2321 2335 2345 2358 2373 2393 2413 2418 2420 
2121 2134 2139 2138 2139 2146 2155 2156 2157 2160 2164 2166 2169 2171 2176 2180 2184 2192 2202 2211 2216 2219 2223 2229 2238 2248 2255 2261 2265 2263 2265 2265 2261 2259 2260 2260 2259 2255 2251 2247 2247 2247 2246 2247 2250 2253 2257 2260 2261 2262 2263 2265 2269 2273 2280 2286 2288 2290 2293 2295 2297 2303 2312 2314 2314 2317 2321 2326 2332 2339 2348 2358 2365 2369 2374 2375 2372 2368 2359 2348 2336 2326 2320 2317 2316 2314 2306 2296 2292 2291 2294 2299 2304 2309 2313 2315 2314 2311 2307 2301 2308 2324 2339 2348 2358 2371 2394 2417 2427 2430 2427 
2134 2144 2148 2150 2153 2157 2162 2165 2167 2168 2166 2166 2167 2172 2176 2181 2189 2194 2201 2210 2216 2222 2228 2236 2247 2256 2264 2271 2273 2275 2275 2274 2272 2269 2267 2266 2264 2261 2257 2256 2257 2258 2258 2258 2259 2260 2264 2269 2272 2273 2275 2278 2284 2290 2294 2297 2301 2304 2306 2308 2313 2319 2324 2326 2326 2327 2334 2340 2342 2346 2355 2365 2370 2374 2375 2376 2376 2370 2360 2348 2336 2328 2324 2323 2324 2319 2309 2302 2297 2296 2299 2303 2308 2313 2316 2319 2319 2316 2316 2318 2327 2344 2359 2372 2382 2393 2410 2428 2434 2435 2432 
2146 2152 2154 2157 2161 2163 2166 2169 2171 2171 2168 2166 2170 2175 2182 2190 2192 2198 2205 2214 2230 2240 2249 2259 2264 2269 2273 2277 2282 2285 2286 2286 2281 2277 2274 2272 2270 2269 2268 2267 2269 2269 2267 2266 2264 2266 2270 2276 2281 2284 2288 2294 2298 2299 2301 2303 2307 2313 2318 2323 2328 2333 2337 2338 2341 2346 2352 2357 2358 2358 2362 2369 2373 2375 2377 2378 2379 2374 2365 2354 2342 2335 2333 2333 2332 2328 2318 2310 2305 2304 2306 2309 2313 2316 2321 2322 2323 2324 2325 2330 2340 2359 2381 2402 2417 2421 2426 2432 2442 2444 2441 
2154 2153 2154 2160 2164 2166 2169 2169 2170 2170 2169 2169 2175 2183 2190 2198 2207 2216 2225 2239 2253 2260 2267 2274 2277 2279 2281 2284 2286 2288 2289 2285 2280 2278 2277 2276 2276 2277 2279 2282 2285 2286 2286 2281 2276 2275 2279 2283 2287 2291 2296 2301 2304 2304 2304 2307 2314 2327 2336 2340 2343 2344 2346 2351 2357 2361 2365 2367 2368 2368 2369 2370 2371 2374 2377 2380 2379 2375 2367 2355 2348 2344 2343 2344 2343 2337 2326 2315 2312 2313 2316 2320 2324 2326 2324 2325 2326 2330 2336 2342 2351 2372 2400 2420 2435 2442 2447 2450 2451 2453 2455 
2158 2158 2161 2164 2170 2171 2173 2173 2174 2182 2184 2188 2196 2202 2205 2209 2217 2228 2240 2252 2262 2268 2272 2277 2282 2285 2287 2288 2290 2292 2288 2285 2281 2281 2282 2282 2284 2286 2287 2289 2293 2296 2297 2295 2291 2289 2292 2295 2299 2303 2308 2310 2310 2309 2311 2321 2337 2350 2356 2358 2356 2355 2357 2362 2369 2375 2376 2375 2375 2374 2373 2373 2374 2376 2379 2380 2378 2372 2365 2360 2354 2351 2351 2351 2347 2339 2329 2322 2320 2322 2325 2328 2330 2331 2332 2331 2334 2341 2349 2357 2370 2391 2412 2431 2441 2449 2456 2460 2458 2458 2458 
2167 2170 2173 2176 2176 2176 2175 2177 2186 2198 2208 2211 2214 2217 2219 2222 2224 2233 2245 2259 2274 2279 2280 2285 2291 2293 2293 2293 2297 2297 2298 2294 2291 2289 2287 2288 2290 2291 2293 2295 2297 2299 2302 2304 2305 2305 2306 2308 2312 2316 2319 2320 2321 2323 2331 2342 2353 2362 2365 2366 2366 2365 2368 2374 2381 2385 2386 2385 2382 2381 2378 2376 2376 2378 2379 2379 2378 2374 2370 2367 2367 2367 2363 2358 2354 2346 2336 2333 2333 2334 2335 2334 2332 2331 2333 2337 2343 2355 2365 2371 2382 2403 2426 2440 2449 2458 2466 2470 2468 2462 2458 
2171 2177 2181 2181 2179 2176 2172 2173 2195 2215 2217 2217 2219 2221 2226 2229 2234 2236 2252 2271 2279 2284 2287 2291 2293 2295 2296 2297 2299 2302 2303 2302 2300 2297 2295 2294 2295 2296 2298 2301 2304 2307 2311 2312 2313 2314 2315 2317 2319 2321 2325 2328 2332 2337 2344 2353 2360 2365 2369 2369 2370 2375 2379 2383 2388 2391 2393 2394 2392 2388 2384 2382 2381 2381 2383 2386 2387 2385 2380 2379 2380 2379 2375 2368 2359 2350 2346 2343 2342 2340 2338 2336 2334 2335 2337 2345 2357 2367 2378 2389 2401 2416 2434 2449 2460 2468 2476 2478 2476 2468 2460 
2176 2182 2184 2183 2181 2176 2174 2198 2220 2219 2220 2223 2224 2225 2229 2233 2237 2243 2258 2270 2279 2287 2289 2290 2293 2297 2297 2298 2300 2302 2303 2304 2303 2300 2299 2299 2299 2301 2305 2309 2313 2316 2317 2318 2318 2318 2319 2322 2324 2326 2330 2334 2339 2345 2351 2357 2363 2367 2371 2375 2380 2386 2389 2392 2393 2394 2396 2396 2393 2391 2389 2389 2387 2389 2390 2392 2393 2391 2389 2388 2389 2390 2388 2380 2370 2358 2350 2348 2345 2342 2338 2336 2337 2339 2348 2359 2367 2376 2388 2400 2412 2438 2451 2461 2473 2479 2475 2472 2460 2452 2454 
2178 2183 2182 2182 2182 2184 2188 2206 2220 2218 2223 2231 2234 2235 2237 2239 2240 2246 2253 2264 2277 2285 2288 2290 2294 2298 2300 2301 2302 2304 2305 2305 2304 2304 2304 2306 2307 2308 2311 2315 2318 2320 2321 2322 2322 2323 2327 2331 2333 2335 2340 2345 2350 2355 2359 2362 2366 2371 2380 2388 2396 2404 2410 2407 2403 2402 2400 2398 2394 2392 2392 2392 2392 2391 2393 2395 2397 2398 2395 2395 2395 2394 2390 2381 2370 2359 2350 2346 2343 2341 2338 2338 2340 2347 2356 2366 2376 2388 2399 2409 2438 2452 2459 2469 2479 2472 2463 2453 2444 2436 2388 
2172 2177 2179 2179 2184 2191 2209 2223 2221 2219 2226 2234 2238 2241 2243 2242 2243 2248 2255 2263 2270 2278 2285 2289 2293 2297 2301 2303 2306 2307 2307 2308 2309 2311 2312 2312 2313 2314 2316 2318 2321 2324 2326 2327 2328 2332 2336 2340 2345 2351 2356 2359 2363 2370 2374 2378 2385 2396 2405 2412 2429 2442 2449 2442 2429 2417 2407 2403 2399 2397 2399 2397 2394 2393 2396 2398 2402 2404 2404 2403 2402 2399 2392 2385 2374 2363 2354 2347 2346 2344 2344 2345 2348 2355 2366 2376 2386 2398 2413 2425 2447 2454 2466 2472 2466 2473 2432 2422 2389 2362 2304 
2158 2168 2174 2174 2188 2211 2226 2228 2231 2232 2233 2235 2238 2242 2245 2246 2246 2248 2253 2259 2265 2271 2279 2284 2290 2297 2302 2305 2306 2307 2308 2312 2316 2316 2316 2316 2317 2317 2320 2324 2327 2329 2330 2333 2335 2339 2344 2352 2362 2371 2376 2379 2382 2386 2391 2396 2404 2416 2431 2452 2470 2482 2481 2469 2448 2427 2417 2414 2410 2406 2403 2401 2400 2403 2402 2405 2407 2408 2408 2407 2405 2400 2394 2387 2379 2369 2360 2356 2353 2351 2348 2348 2357 2366 2375 2384 2393 2406 2419 2436 2444 2451 2456 2463 2452 2435 2401 2379 2371 2337 2312 
2132 2142 2150 2157 2177 2199 2212 2233 2238 2237 2234 2233 2236 2241 2244 2243 2242 2245 2248 2252 2259 2266 2273 2278 2282 2290 2299 2306 2308 2308 2311 2317 2319 2319 2319 2321 2322 2323 2325 2328 2331 2332 2335 2339 2344 2349 2357 2366 2375 2384 2394 2401 2405 2409 2411 2416 2427 2443 2473 2496 2507 2508 2495 2480 2473 2467 2449 2428 2416 2409 2406 2407 2407 2409 2412 2410 2409 2410 2410 2410 2410 2405 2398 2390 2382 2372 2363 2359 2357 2354 2352 2358 2364 2371 2380 2390 2412 2425 2434 2441 2442 2443 2428 2422 2412 2384 2366 2346 2330 2311 2300 
2107 2118 2125 2137 2164 2189 2206 2218 2222 2222 2224 2226 2228 2231 2231 2232 2233 2235 2238 2243 2249 2258 2267 2274 2280 2286 2293 2302 2310 2312 2315 2322 2329 2330 2328 2330 2332 2331 2331 2334 2337 2338 2340 2344 2350 2359 2367 2374 2383 2395 2408 2418 2423 2425 2434 2441 2465 2500 2515 2527 2529 2521 2515 2510 2485 2476 2462 2441 2426 2417 2414 2413 2414 2417 2418 2417 2416 2418 2419 2423 2418 2414 2403 2390 2377 2368 2363 2361 2358 2357 2359 2363 2369 2375 2385 2412 2423 2429 2439 2454 2447 2439 2421 2401 2378 2390 2367 2342 2320 2308 2291 
2091 2102 2119 2136 2153 2180 2203 2207 2204 2204 2209 2213 2218 2221 2222 2223 2226 2228 2230 2233 2241 2251 2260 2269 2278 2283 2290 2299 2305 2309 2317 2327 2337 2340 2341 2341 2340 2339 2340 2344 2348 2349 2350 2354 2359 2368 2376 2382 2389 2403 2416 2423 2429 2435 2448 2480 2505 2513 2519 2525 2529 2529 2527 2519 2491 2477 2463 2449 2436 2427 2421 2420 2420 2422 2424 2425 2426 2427 2432 2437 2431 2425 2409 2391 2378 2367 2363 2361 2362 2364 2368 2373 2380 2386 2396 2421 2437 2447 2462 2471 2458 2441 2402 2368 2375 2350 2328 2316 2306 2293 2274 
2083 2096 2112 2126 2138 2157 2180 2192 2190 2188 2194 2205 2209 2211 2213 2217 2220 2223 2225 2228 2236 2244 2252 2259 2269 2278 2285 2293 2301 2310 2321 2334 2341 2347 2349 2350 2349 2346 2349 2353 2356 2359 2364 2368 2372 2377 2382 2389 2399 2411 2420 2429 2438 2454 2478 2495 2506 2516 2526 2533 2539 2539 2538 2530 2522 2490 2456 2447 2439 2431 2426 2423 2423 2425 2428 2429 2432 2438 2442 2442 2437 2426 2411 2394 2379 2370 2366 2366 2366 2371 2376 2384 2392 2400 2412 2427 2447 2464 2468 2469 2451 2433 2372 2378 2342 2313 2309 2301 2288 2273 2253 
2081 2090 2104 2115 2122 2136 2159 2172 2172 2175 2183 2192 2196 2200 2202 2209 2215 2218 2222 2230 2238 2243 2248 2254 2263 2275 2284 2291 2299 2311 2325 2336 2345 2351 2356 2358 2356 2354 2354 2356 2358 2363 2370 2376 2378 2380 2386 2391 2404 2417 2426 2435 2456 2477 2488 2500 2514 2528 2538 2548 2559 2570 2567 2566 2529 2475 2451 2444 2439 2435 2430 2426 2425 2425 2426 2428 2437 2447 2451 2446 2441 2429 2415 2399 2384 2377 2374 2377 2379 2385 2389 2398 2406 2412 2421 2445 2466 2466 2463 2447 2425 2393 2363 2338 2317 2308 2301 2292 2279 2264 2246 
2083 2094 2112 2124 2130 2144 2153 2159 2162 2167 2175 2182 2189 2195 2202 2208 2213 2217 2224 2233 2242 2246 2248 2256 2267 2277 2284 2291 2297 2309 2323 2333 2341 2349 2357 2361 2364 2365 2366 2370 2373 2377 2383 2384 2383 2384 2388 2398 2411 2421 2430 2446 2464 2480 2491 2503 2521 2538 2549 2559 2570 2579 2590 2601 2559 2495 2463 2445 2441 2434 2434 2432 2429 2428 2430 2433 2451 2456 2454 2448 2437 2427 2416 2403 2387 2378 2377 2380 2386 2397 2404 2408 2415 2416 2426 2440 2453 2442 2424 2410 2383 2362 2342 2327 2310 2301 2293 2282 2269 2251 2234 
2100 2113 2126 2142 2148 2155 2160 2162 2166 2170 2175 2185 2194 2198 2206 2215 2218 2222 2229 2239 2247 2253 2256 2260 2269 2278 2284 2291 2303 2314 2324 2333 2340 2348 2358 2366 2372 2375 2380 2384 2386 2387 2387 2388 2390 2391 2392 2401 2410 2423 2436 2453 2470 2480 2489 2507 2523 2535 2542 2549 2554 2596 2604 2598 2587 2522 2463 2446 2437 2433 2431 2431 2430 2430 2431 2437 2441 2446 2445 2437 2431 2425 2415 2403 2394 2388 2383 2383 2392 2404 2410 2412 2419 2427 2431 2433 2406 2382 2379 2374 2357 2341 2329 2318 2307 2296 2283 2268 2250 2235 2221 
2125 2131 2146 2159 2171 2180 2185 2185 2185 2189 2196 2205 2214 2222 2229 2233 2233 2230 2236 2244 2252 2256 2260 2266 2273 2278 2286 2295 2307 2319 2328 2336 2346 2356 2362 2368 2374 2380 2384 2387 2390 2391 2393 2395 2397 2399 2399 2401 2412 2426 2441 2456 2468 2489 2498 2508 2516 2524 2535 2532 2541 2596 2578 2558 2532 2491 2454 2439 2429 2427 2425 2426 2428 2428 2428 2414 2407 2427 2431 2429 2425 2419 2416 2414 2410 2407 2399 2397 2404 2408 2416 2408 2409 2410 2410 2402 2395 2384 2372 2359 2348 2337 2321 2306 2297 2288 2273 2256 2238 2221 2212 
2137 2146 2161 2173 2180 2190 2198 2202 2206 2213 2223 2230 2236 2244 2254 2255 2250 2247 2249 2253 2256 2260 2264 2268 2274 2280 2287 2300 2313 2327 2338 2345 2355 2363 2368 2373 2377 2381 2385 2390 2394 2398 2400 2402 2404 2404 2405 2407 2417 2431 2443 2454 2464 2481 2495 2508 2510 2513 2518 2519 2529 2532 2546 2524 2487 2449 2435 2425 2418 2412 2415 2416 2420 2413 2404 2393 2395 2400 2420 2429 2418 2405 2405 2417 2425 2426 2416 2406 2406 2406 2404 2401 2398 2397 2399 2395 2390 2380 2373 2359 2346 2324 2305 2297 2288 2279 2267 2244 2223 2214 2205 
2144 2161 2173 2177 2187 2197 2207 2216 2224 2232 2243 2252 2257 2264 2267 2269 2267 2262 2260 2260 2262 2266 2271 2275 2279 2286 2298 2316 2339 2352 2359 2363 2366 2371 2375 2380 2386 2390 2393 2399 2407 2409 2408 2408 2407 2408 2408 2414 2421 2433 2448 2453 2458 2465 2481 2495 2500 2512 2509 2512 2512 2511 2493 2476 2451 2425 2413 2407 2401 2396 2397 2399 2395 2379 2372 2373 2374 2380 2390 2399 2402 2388 2395 2414 2416 2431 2410 2399 2395 2393 2394 2394 2392 2391 2392 2390 2384 2375 2369 2355 2333 2313 2300 2289 2280 2271 2259 2242 2225 2211 2199 
2153 2167 2173 2184 2196 2210 2219 2223 2233 2250 2263 2274 2279 2282 2285 2280 2275 2274 2273 2270 2271 2277 2286 2295 2304 2314 2326 2342 2356 2370 2375 2374 2374 2376 2381 2387 2393 2399 2406 2411 2411 2410 2407 2406 2406 2408 2412 2418 2426 2437 2439 2442 2460 2465 2472 2485 2485 2496 2503 2501 2485 2467 2464 2438 2408 2398 2392 2388 2385 2384 2384 2377 2363 2351 2349 2355 2356 2361 2367 2367 2375 2378 2382 2387 2382 2365 2384 2379 2385 2386 2386 2387 2382 2379 2376 2372 2370 2369 2361 2349 2335 2322 2305 2288 2277 2267 2255 2242 2223 2205 2197 
2160 2173 2168 2183 2212 2201 2210 2236 2272 2286 2288 2291 2293 2303 2302 2302 2298 2291 2287 2281 2284 2291 2303 2315 2325 2336 2345 2354 2365 2374 2380 2381 2382 2384 2388 2394 2401 2408 2413 2416 2414 2411 2409 2408 2408 2409 2414 2421 2428 2434 2434 2441 2457 2462 2464 2465 2475 2484 2481 2464 2445 2431 2426 2408 2394 2383 2377 2373 2369 2368 2367 2368 2345 2337 2333 2334 2337 2337 2322 2336 2346 2352 2362 2353 2351 2339 2353 2370 2377 2379 2384 2371 2364 2363 2360 2362 2365 2367 2368 2361 2351 2334 2312 2292 2277 2265 2256 2241 2219 2203 2195 
2161 2166 2165 2180 2213 2235 2257 2265 2276 2281 2290 2295 2300 2313 2319 2320 2318 2310 2304 2298 2297 2301 2312 2325 2340 2352 2360 2369 2379 2384 2386 2388 2390 2392 2396 2403 2409 2414 2420 2424 2425 2424 2420 2415 2413 2411 2414 2415 2419 2422 2426 2431 2443 2449 2452 2449 2466 2458 2454 2438 2425 2416 2403 2387 2378 2372 2365 2358 2352 2347 2345 2344 2327 2322 2319 2315 2318 2317 2310 2307 2315 2321 2320 2323 2326 2325 2341 2355 2365 2365 2365 2348 2345 2350 2356 2357 2360 2364 2366 2361 2356 2339 2321 2300 2282 2269 2255 2231 2208 2201 2196 
2156 2173 2164 2187 2214 2260 2265 2274 2280 2291 2292 2297 2307 2327 2330 2329 2326 2326 2322 2319 2319 2323 2332 2346 2357 2366 2373 2382 2388 2392 2394 2396 2398 2401 2407 2413 2418 2423 2430 2434 2434 2431 2426 2422 2419 2415 2409 2404 2404 2408 2411 2418 2428 2435 2437 2435 2433 2434 2438 2425 2414 2400 2383 2377 2370 2362 2354 2344 2337 2331 2325 2318 2310 2307 2301 2295 2296 2291 2290 2289 2291 2294 2300 2303 2306 2312 2318 2328 2337 2339 2324 2321 2330 2343 2345 2352 2357 2363 2359 2354 2341 2324 2302 2287 2281 2271 2249 2225 2212 2205 2201 
2169 2172 2177 2193 2231 2268 2275 2283 2285 2298 2291 2307 2320 2338 2338 2336 2334 2335 2336 2337 2338 2343 2351 2362 2371 2379 2386 2390 2393 2396 2398 2401 2404 2408 2414 2423 2430 2437 2441 2444 2438 2429 2422 2420 2416 2408 2400 2394 2393 2393 2396 2400 2411 2416 2419 2420 2418 2421 2411 2400 2392 2382 2376 2368 2360 2351 2341 2332 2324 2316 2310 2302 2295 2288 2284 2281 2277 2275 2272 2270 2271 2272 2277 2285 2286 2286 2294 2302 2306 2304 2292 2298 2310 2318 2326 2336 2348 2351 2350 2345 2327 2302 2286 2277 2272 2268 2252 2236 2228 2222 2214 
2173 2180 2195 2193 2230 2258 2275 2293 2290 2282 2298 2313 2349 2346 2344 2343 2341 2343 2347 2350 2352 2359 2370 2381 2389 2394 2397 2399 2401 2401 2402 2406 2409 2415 2423 2433 2442 2449 2454 2453 2445 2427 2417 2411 2402 2392 2386 2384 2384 2383 2383 2387 2391 2397 2398 2398 2396 2395 2386 2377 2373 2369 2363 2355 2345 2336 2326 2317 2308 2298 2291 2286 2282 2278 2272 2267 2264 2263 2263 2260 2259 2261 2262 2271 2269 2270 2272 2282 2287 2287 2284 2284 2288 2299 2306 2316 2331 2336 2334 2323 2306 2288 2270 2268 2265 2259 2252 2244 2235 2228 2220 
2187 2190 2194 2203 2223 2334 2348 2286 2275 2285 2310 2345 2352 2352 2350 2349 2350 2352 2355 2358 2365 2375 2385 2393 2397 2401 2404 2406 2407 2409 2412 2414 2419 2428 2440 2451 2460 2465 2468 2461 2450 2428 2404 2392 2383 2379 2378 2376 2374 2373 2374 2376 2379 2380 2382 2377 2375 2373 2369 2362 2357 2355 2347 2335 2326 2320 2312 2306 2296 2285 2280 2277 2274 2270 2265 2259 2256 2255 2254 2253 2253 2255 2257 2260 2263 2263 2265 2267 2271 2276 2277 2280 2282 2288 2289 2294 2305 2306 2305 2296 2276 2262 2258 2254 2253 2249 2245 2238 2230 2224 2218 
2191 2198 2190 2205 2225 2268 2287 2295 2301 2317 2344 2352 2358 2358 2360 2359 2360 2361 2362 2367 2374 2384 2392 2397 2399 2400 2404 2409 2412 2414 2417 2422 2436 2449 2458 2466 2473 2479 2476 2464 2433 2405 2390 2381 2373 2369 2371 2368 2362 2362 2362 2364 2363 2364 2363 2360 2356 2354 2350 2349 2346 2341 2330 2322 2315 2309 2303 2296 2288 2281 2273 2269 2266 2263 2260 2254 2252 2247 2246 2245 2246 2246 2248 2251 2254 2257 2258 2257 2258 2261 2267 2269 2272 2275 2277 2282 2283 2283 2279 2268 2258 2247 2245 2245 2243 2241 2236 2231 2224 2217 2212 
2196 2202 2205 2210 2232 2254 2272 2287 2301 2322 2347 2351 2363 2368 2370 2372 2373 2373 2374 2376 2381 2389 2396 2401 2402 2402 2404 2409 2414 2418 2426 2440 2452 2462 2470 2477 2483 2483 2475 2453 2428 2399 2375 2365 2358 2352 2351 2349 2345 2346 2347 2345 2341 2340 2342 2340 2336 2333 2331 2331 2327 2322 2317 2310 2303 2299 2295 2288 2279 2272 2266 2261 2261 2260 2257 2254 2249 2245 2241 2241 2239 2238 2238 2240 2244 2246 2248 2248 2247 2250 2254 2258 2261 2262 2265 2266 2266 2262 2259 2251 2242 2240 2239 2239 2237 2232 2228 2223 2218 2213 2208 
2199 2206 2214 2220 2232 2267 2282 2297 2303 2311 2333 2357 2369 2377 2378 2379 2379 2380 2378 2380 2383 2388 2396 2402 2404 2407 2411 2414 2419 2428 2442 2454 2464 2471 2479 2487 2490 2483 2472 2448 2419 2379 2346 2337 2331 2330 2328 2326 2323 2321 2320 2317 2313 2315 2317 2319 2317 2313 2314 2314 2312 2308 2303 2297 2293 2290 2287 2281 2274 2266 2261 2257 2256 2256 2254 2250 2246 2242 2241 2239 2238 2234 2231 2232 2234 2235 2236 2237 2238 2239 2242 2246 2248 2251 2254 2256 2253 2250 2243 2239 2235 2234 2234 2232 2230 2225 2219 2215 2211 2206 2200 
2203 2206 2222 2231 2236 2267 2291 2299 2311 2323 2344 2372 2386 2389 2388 2388 2390 2388 2385 2385 2388 2394 2399 2404 2408 2412 2418 2423 2434 2446 2456 2466 2474 2482 2489 2494 2489 2481 2465 2439 2393 2356 2338 2325 2317 2311 2312 2313 2311 2308 2303 2297 2295 2293 2295 2298 2295 2296 2298 2300 2300 2298 2294 2290 2287 2284 2279 2272 2266 2259 2255 2254 2252 2250 2247 2244 2241 2240 2239 2240 2237 2234 2231 2229 2227 2224 2226 2226 2228 2230 2234 2237 2240 2245 2249 2248 2246 2241 2237 2234 2232 2230 2228 2227 2221 2217 2213 2209 2205 2199 2193 
2208 2221 2224 2233 2251 2273 2292 2313 2334 2353 2375 2391 2401 2401 2401 2403 2402 2398 2393 2391 2393 2398 2403 2406 2410 2416 2426 2439 2451 2460 2467 2477 2488 2496 2498 2498 2485 2463 2438 2408 2371 2337 2324 2316 2305 2297 2294 2296 2297 2294 2289 2284 2279 2277 2278 2279 2278 2278 2282 2283 2285 2285 2283 2281 2281 2278 2272 2267 2260 2254 2251 2248 2246 2242 2239 2236 2235 2235 2234 2235 2238 2237 2232 2228 2225 2222 2219 2218 2218 2221 2226 2230 2234 2239 2244 2244 2242 2237 2234 2231 2229 2227 2224 2219 2214 2209 2206 2203 2198 2192 2186 
2227 2235 2241 2252 2266 2280 2301 2323 2352 2379 2396 2405 2408 2412 2413 2414 2412 2407 2400 2394 2393 2397 2403 2407 2411 2418 2431 2449 2465 2479 2488 2501 2512 2513 2510 2494 2473 2444 2413 2377 2342 2317 2297 2294 2287 2272 2265 2274 2277 2269 2264 2262 2262 2260 2261 2262 2263 2266 2267 2269 2270 2273 2274 2272 2272 2270 2267 2262 2257 2250 2245 2241 2238 2234 2231 2229 2229 2229 2230 2233 2237 2237 2235 2230 2226 2220 2215 2212 2212 2214 2216 2221 2227 2233 2237 2238 2237 2233 2228 2225 2224 2220 2217 2213 2207 2201 2197 2193 2188 2184 2179 
2239 2244 2255 2270 2284 2299 2321 2347 2378 2406 2413 2417 2421 2423 2425 2424 2422 2418 2407 2400 2400 2401 2406 2411 2417 2425 2442 2458 2475 2492 2505 2516 2518 2517 2509 2496 2474 2449 2419 2386 2349 2315 2290 2272 2260 2253 2248 2244 2243 2244 2243 2246 2246 2246 2247 2248 2250 2251 2253 2255 2258 2262 2265 2264 2262 2259 2256 2255 2250 2244 2238 2235 2232 2228 2225 2223 2223 2223 2225 2229 2233 2235 2234 2230 2223 2217 2213 2210 2208 2208 2208 2211 2218 2225 2228 2229 2229 2225 2221 2218 2214 2211 2208 2204 2200 2195 2191 2186 2183 2179 2176 
2247 2254 2265 2276 2290 2331 2367 2382 2398 2409 2419 2425 2429 2430 2429 2427 2425 2418 2413 2409 2409 2412 2417 2425 2430 2437 2447 2460 2480 2500 2518 2530 2524 2517 2493 2470 2453 2432 2401 2370 2343 2314 2286 2262 2252 2243 2238 2234 2234 2232 2232 2232 2232 2233 2235 2237 2237 2237 2239 2243 2246 2252 2256 2257 2254 2253 2251 2247 2243 2237 2232 2230 2228 2223 2221 2218 2216 2217 2218 2222 2226 2228 2228 2223 2218 2214 2211 2208 2205 2202 2203 2204 2207 2210 2215 2217 2218 2216 2213 2212 2209 2205 2202 2200 2196 2193 2189 2185 2180 2176 2173 
2253 2265 2278 2290 2342 2372 2378 2385 2396 2411 2424 2430 2432 2431 2430 2427 2425 2421 2418 2419 2422 2425 2430 2436 2442 2453 2464 2483 2501 2523 2540 2538 2528 2493 2459 2435 2410 2383 2359 2342 2319 2286 2264 2250 2239 2233 2228 2224 2223 2222 2221 2221 2221 2221 2222 2224 2225 2224 2228 2231 2233 2238 2245 2247 2247 2247 2245 2242 2236 2231 2226 2224 2222 2219 2216 2213 2212 2211 2211 2214 2218 2221 2221 2217 2211 2208 2206 2204 2201 2198 2196 2198 2200 2202 2203 2206 2207 2206 2205 2204 2202 2200 2197 2194 2192 2188 2186 2181 2176 2171 2169 
2271 2277 2284 2294 2334 2373 2379 2386 2395 2406 2418 2427 2429 2432 2433 2433 2432 2430 2428 2427 2426 2429 2437 2444 2452 2466 2487 2507 2526 2540 2546 2539 2519 2485 2449 2411 2379 2357 2338 2319 2295 2272 2253 2242 2232 2225 2219 2215 2212 2211 2211 2211 2211 2213 2213 2215 2216 2215 2217 2222 2222 2226 2231 2235 2240 2241 2241 2237 2232 2225 2218 2217 2216 2213 2211 2210 2208 2207 2206 2209 2210 2212 2211 2209 2206 2204 2201 2199 2195 2192 2190 2190 2192 2195 2196 2197 2198 2198 2197 2195 2195 2195 2192 2190 2186 2183 2180 2177 2173 2170 2171 
2274 2284 2295 2322 2353 2370 2382 2391 2401 2415 2426 2431 2435 2436 2438 2438 2436 2434 2432 2429 2432 2437 2443 2448 2460 2474 2501 2528 2542 2555 2545 2533 2498 2465 2436 2406 2373 2345 2329 2311 2284 2261 2248 2238 2230 2220 2212 2207 2204 2204 2205 2206 2207 2208 2208 2208 2209 2209 2211 2212 2213 2215 2219 2223 2228 2232 2231 2230 2225 2218 2212 2210 2210 2208 2207 2206 2204 2203 2203 2204 2204 2203 2203 2202 2201 2199 2197 2195 2193 2189 2186 2185 2186 2187 2187 2189 2189 2189 2188 2188 2188 2188 2188 2187 2185 2183 2180 2176 2173 2171 2170 
2275 2292 2311 2332 2355 2373 2389 2402 2418 2430 2442 2444 2446 2443 2440 2439 2439 2438 2439 2441 2443 2448 2453 2459 2475 2515 2544 2556 2556 2539 2519 2497 2481 2461 2432 2398 2363 2337 2317 2295 2276 2260 2246 2234 2224 2214 2206 2199 2196 2195 2198 2201 2201 2201 2202 2203 2203 2202 2203 2203 2205 2208 2211 2215 2220 2224 2223 2222 2220 2216 2212 2209 2206 2204 2201 2199 2199 2199 2200 2200 2199 2197 2196 2195 2195 2194 2193 2191 2188 2185 2182 2181 2180 2180 2180 2181 2182 2182 2182 2182 2183 2184 2185 2186 2187 2186 2181 2176 2172 2169 2168 
2286 2302 2317 2334 2358 2379 2396 2413 2432 2446 2450 2450 2450 2447 2444 2442 2443 2445 2447 2447 2450 2455 2461 2485 2518 2537 2550 2546 2538 2513 2486 2462 2438 2415 2392 2374 2354 2326 2299 2285 2273 2258 2241 2226 2215 2206 2198 2192 2188 2190 2191 2192 2192 2193 2194 2195 2196 2196 2195 2196 2198 2202 2205 2210 2215 2217 2219 2219 2218 2215 2211 2207 2203 2198 2197 2196 2196 2195 2194 2193 2191 2191 2191 2191 2191 2190 2189 2186 2183 2178 2176 2175 2176 2175 2175 2176 2178 2178 2178 2179 2179 2181 2183 2186 2187 2184 2178 2173 2168 2166 2163 
2297 2313 2331 2354 2377 2397 2410 2422 2440 2452 2454 2455 2454 2455 2453 2451 2452 2453 2454 2454 2454 2457 2476 2495 2518 2535 2540 2541 2524 2501 2467 2436 2415 2397 2380 2354 2321 2298 2283 2271 2260 2248 2233 2217 2208 2203 2196 2188 2182 2183 2184 2184 2184 2185 2186 2188 2190 2190 2191 2190 2191 2195 2200 2203 2207 2209 2212 2215 2215 2210 2206 2201 2195 2192 2192 2192 2190 2189 2187 2186 2186 2185 2187 2188 2187 2184 2182 2180 2176 2174 2172 2172 2172 2172 2171 2171 2172 2173 2175 2176 2177 2178 2181 2184 2184 2181 2176 2172 2169 2163 2158 
2316 2334 2351 2376 2399 2410 2421 2439 2454 2459 2461 2460 2463 2464 2464 2461 2456 2454 2455 2455 2460 2471 2486 2499 2514 2523 2522 2515 2496 2471 2444 2419 2402 2386 2353 2316 2298 2282 2272 2261 2250 2239 2226 2214 2208 2202 2194 2186 2182 2180 2179 2179 2178 2178 2179 2180 2181 2182 2183 2184 2186 2190 2192 2197 2200 2202 2204 2207 2207 2203 2199 2193 2187 2185 2185 2185 2184 2182 2181 2180 2180 2180 2180 2181 2180 2179 2177 2174 2172 2170 2168 2167 2166 2165 2164 2165 2166 2168 2172 2174 2174 2175 2178 2182 2183 2182 2177 2173 2166 2160 2157 
2322 2345 2378 2400 2413 2422 2429 2449 2461 2465 2465 2466 2467 2466 2464 2462 2462 2460 2458 2465 2471 2483 2494 2503 2509 2509 2509 2485 2457 2437 2421 2410 2397 2373 2344 2322 2301 2281 2267 2255 2244 2234 2225 2217 2209 2200 2192 2185 2181 2177 2173 2169 2170 2171 2171 2172 2174 2176 2177 2177 2179 2181 2185 2188 2192 2195 2196 2197 2196 2195 2192 2187 2181 2178 2179 2178 2176 2174 2174 2174 2174 2173 2174 2175 2174 2173 2172 2170 2168 2166 2163 2162 2162 2162 2161 2162 2163 2165 2167 2169 2170 2172 2174 2178 2180 2179 2176 2168 2161 2157 2155 
2330 2356 2380 2403 2413 2419 2438 2455 2463 2467 2466 2467 2468 2468 2466 2463 2467 2474 2478 2480 2487 2497 2504 2505 2501 2499 2493 2473 2449 2426 2407 2395 2382 2365 2346 2315 2282 2268 2257 2249 2242 2230 2221 2215 2209 2200 2191 2185 2179 2171 2166 2164 2164 2164 2164 2167 2168 2170 2172 2170 2169 2171 2174 2177 2181 2186 2189 2189 2187 2185 2181 2175 2171 2169 2170 2170 2169 2169 2169 2168 2168 2168 2169 2169 2167 2165 2165 2165 2164 2161 2160 2159 2160 2160 2160 2159 2159 2161 2163 2164 2167 2168 2170 2173 2176 2177 2175 2169 2162 2155 2152 
2340 2367 2395 2413 2423 2434 2451 2459 2466 2467 2467 2468 2469 2469 2469 2471 2475 2480 2484 2488 2494 2501 2501 2499 2485 2467 2460 2454 2434 2412 2398 2382 2367 2352 2327 2300 2279 2262 2255 2247 2237 2227 2219 2214 2209 2202 2194 2185 2176 2167 2162 2159 2158 2159 2161 2163 2166 2166 2166 2165 2164 2164 2165 2167 2169 2173 2180 2180 2179 2175 2171 2167 2163 2162 2162 2163 2164 2163 2163 2163 2163 2163 2164 2163 2161 2160 2160 2160 2159 2157 2155 2155 2156 2156 2156 2154 2154 2156 2158 2160 2160 2161 2164 2167 2172 2175 2175 2172 2163 2157 2152 
2366 2390 2429 2442 2454 2452 2457 2466 2471 2473 2474 2474 2473 2474 2476 2480 2485 2488 2491 2495 2497 2497 2497 2485 2468 2455 2442 2422 2409 2402 2386 2369 2353 2337 2312 2282 2268 2260 2253 2245 2236 2227 2219 2211 2207 2203 2195 2182 2173 2164 2159 2156 2156 2156 2157 2159 2158 2158 2158 2158 2158 2158 2159 2161 2164 2167 2170 2173 2173 2170 2166 2162 2159 2157 2158 2157 2157 2158 2158 2157 2156 2155 2155 2156 2157 2156 2155 2155 2154 2153 2152 2152 2152 2152 2150 2149 2149 2151 2154 2155 2157 2157 2160 2164 2170 2174 2176 2172 2166 2158 2154 
2373 2403 2440 2454 2470 2472 2474 2479 2477 2478 2481 2482 2485 2486 2487 2492 2496 2499 2501 2499 2493 2489 2484 2473 2460 2442 2421 2409 2400 2385 2366 2351 2339 2323 2302 2276 2258 2254 2250 2245 2241 2234 2226 2217 2211 2206 2196 2185 2174 2165 2158 2155 2154 2153 2152 2151 2150 2150 2150 2149 2149 2149 2152 2156 2159 2161 2162 2163 2165 2165 2161 2158 2156 2154 2153 2153 2152 2151 2150 2149 2148 2148 2148 2149 2149 2150 2150 2149 2149 2149 2149 2148 2147 2146 2145 2145 2148 2149 2151 2152 2154 2154 2155 2162 2170 2176 2181 2177 2169 2162 2158 
2375 2413 2442 2460 2491 2491 2491 2487 2482 2482 2485 2491 2494 2495 2497 2500 2505 2511 2507 2497 2477 2463 2452 2446 2434 2416 2402 2393 2385 2375 2355 2337 2329 2312 2278 2258 2255 2253 2252 2247 2242 2238 2234 2230 2228 2222 2213 2197 2178 2166 2160 2153 2150 2148 2147 2146 2145 2145 2144 2143 2143 2143 2144 2146 2149 2150 2153 2155 2156 2156 2155 2153 2151 2149 2148 2147 2146 2145 2144 2143 2143 2143 2143 2143 2143 2144 2143 2143 2143 2143 2143 2141 2140 2140 2141 2143 2146 2147 2148 2148 2149 2149 2151 2155 2164 2175 2181 2180 2173 2167 2163 
2381 2412 2447 2470 2478 2491 2490 2489 2493 2483 2483 2495 2500 2507 2510 2516 2519 2520 2515 2501 2479 2458 2438 2414 2402 2391 2382 2376 2362 2343 2330 2319 2303 2283 2270 2261 2255 2251 2249 2247 2242 2236 2233 2231 2227 2220 2211 2200 2186 2172 2161 2154 2149 2146 2144 2142 2142 2140 2140 2139 2137 2136 2136 2137 2139 2142 2145 2146 2148 2148 2147 2145 2144 2143 2141 2140 2140 2139 2138 2138 2138 2139 2139 2138 2138 2137 2137 2136 2136 2136 2137 2137 2138 2139 2140 2141 2142 2143 2144 2143 2142 2140 2140 2145 2156 2166 2173 2177 2172 2167 2163 
2369 2403 2493 2508 2502 2493 2488 2487 2481 2483 2504 2479 2505 2522 2532 2535 2532 2521 2508 2489 2469 2450 2422 2397 2378 2368 2361 2357 2349 2329 2309 2303 2295 2284 2274 2267 2259 2250 2247 2244 2239 2234 2230 2226 2222 2217 2209 2199 2185 2172 2164 2158 2152 2146 2140 2138 2137 2136 2134 2133 2132 2131 2131 2131 2133 2136 2138 2139 2139 2139 2139 2140 2139 2138 2136 2135 2134 2133 2133 2133 2134 2134 2134 2133 2133 2132 2132 2132 2132 2132 2132 2134 2136 2138 2140 2140 2140 2140 2137 2133 2130 2130 2135 2143 2151 2158 2165 2169 2171 2167 2162 
2355 2358 2432 2511 2506 2499 2481 2474 2462 2477 2480 2513 2521 2529 2523 2523 2511 2492 2466 2447 2436 2420 2393 2368 2353 2344 2341 2335 2327 2316 2307 2300 2293 2285 2276 2269 2263 2255 2248 2242 2238 2232 2227 2222 2217 2211 2204 2196 2185 2173 2163 2155 2146 2138 2133 2131 2131 2131 2130 2128 2125 2123 2124 2125 2128 2130 2132 2132 2132 2132 2133 2134 2133 2132 2130 2129 2128 2127 2128 2129 2130 2131 2130 2130 2127 2126 2127 2128 2128 2128 2130 2131 2133 2135 2137 2138 2135 2132 2127 2123 2122 2126 2133 2139 2146 2151 2157 2164 2168 2167 2163 
2345 2347 2356 2454 2433 2453 2442 2437 2438 2439 2454 2486 2522 2518 2513 2506 2489 2464 2441 2422 2403 2383 2359 2340 2330 2321 2315 2312 2306 2299 2298 2294 2283 2273 2269 2264 2260 2254 2249 2244 2238 2231 2226 2220 2213 2206 2199 2190 2178 2167 2158 2150 2138 2129 2124 2122 2122 2122 2122 2119 2116 2115 2116 2118 2121 2123 2124 2123 2122 2123 2125 2127 2128 2128 2127 2126 2125 2125 2124 2124 2125 2124 2124 2123 2122 2122 2122 2122 2122 2124 2127 2130 2130 2129 2130 2129 2126 2122 2118 2115 2116 2118 2124 2132 2139 2144 2151 2158 2165 2171 2168 
2326 2328 2321 2386 2400 2414 2422 2421 2420 2440 2445 2462 2475 2493 2512 2492 2472 2442 2421 2414 2399 2361 2331 2324 2317 2307 2299 2293 2287 2282 2278 2269 2263 2260 2257 2255 2252 2250 2246 2240 2234 2227 2222 2218 2210 2200 2190 2181 2171 2160 2150 2140 2133 2124 2117 2114 2114 2114 2112 2110 2108 2107 2109 2111 2112 2114 2114 2114 2112 2114 2117 2119 2121 2124 2127 2126 2124 2122 2122 2121 2119 2117 2116 2117 2119 2119 2119 2117 2116 2120 2124 2126 2126 2124 2122 2118 2115 2112 2109 2108 2109 2113 2117 2123 2131 2138 2146 2155 2162 2167 2171 
2297 2303 2308 2361 2373 2387 2398 2397 2396 2400 2410 2434 2467 2523 2493 2466 2437 2417 2406 2395 2382 2360 2330 2312 2304 2297 2290 2283 2275 2268 2261 2255 2251 2250 2248 2247 2246 2243 2239 2236 2231 2226 2221 2213 2203 2190 2181 2173 2162 2151 2143 2136 2128 2119 2113 2108 2107 2106 2105 2102 2100 2099 2100 2103 2105 2107 2106 2105 2105 2107 2110 2113 2115 2119 2121 2122 2121 2119 2118 2118 2116 2114 2113 2113 2112 2113 2112 2110 2113 2117 2119 2119 2118 2114 2110 2106 2102 2100 2099 2101 2105 2110 2116 2120 2124 2132 2142 2150 2158 2162 2163 
2274 2285 2300 2328 2352 2361 2378 2378 2377 2382 2382 2416 2440 2536 2475 2417 2400 2388 2383 2377 2368 2346 2320 2302 2293 2286 2280 2274 2267 2259 2252 2248 2245 2244 2243 2242 2239 2237 2234 2232 2230 2227 2222 2211 2199 2186 2175 2165 2156 2147 2137 2129 2121 2113 2106 2101 2097 2096 2094 2091 2089 2091 2093 2095 2098 2099 2097 2096 2096 2097 2099 2104 2109 2113 2116 2118 2118 2117 2116 2115 2112 2111 2109 2108 2107 2106 2107 2109 2112 2114 2113 2112 2108 2103 2097 2092 2091 2091 2094 2098 2103 2110 2114 2117 2122 2128 2137 2145 2152 2156 2158 
2259 2282 2296 2305 2336 2355 2360 2368 2379 2377 2372 2396 2409 2445 2378 2376 2371 2365 2360 2356 2344 2323 2306 2295 2286 2280 2274 2269 2261 2252 2246 2243 2240 2238 2236 2235 2235 2233 2230 2229 2227 2225 2221 2212 2197 2183 2172 2161 2150 2140 2131 2123 2115 2108 2099 2093 2090 2088 2086 2086 2084 2086 2088 2090 2094 2092 2090 2089 2087 2088 2091 2093 2099 2106 2112 2116 2118 2117 2114 2110 2108 2106 2104 2103 2102 2102 2103 2107 2110 2108 2106 2101 2097 2092 2087 2085 2085 2090 2095 2097 2101 2104 2107 2111 2118 2123 2130 2137 2144 2149 2152 
2260 2281 2298 2304 2310 2333 2352 2376 2366 2363 2360 2370 2371 2372 2364 2360 2354 2346 2338 2329 2319 2310 2300 2290 2281 2276 2270 2261 2253 2249 2244 2240 2236 2232 2230 2230 2230 2230 2229 2226 2224 2222 2216 2206 2195 2183 2168 2156 2146 2136 2128 2119 2112 2105 2098 2089 2085 2084 2083 2083 2081 2081 2081 2085 2086 2086 2084 2081 2081 2081 2081 2085 2091 2098 2106 2112 2114 2114 2109 2104 2101 2099 2097 2096 2096 2096 2098 2101 2102 2098 2091 2087 2083 2080 2078 2078 2080 2086 2090 2092 2096 2099 2103 2106 2110 2117 2124 2130 2136 2143 2148 
2258 2275 2285 2297 2312 2335 2346 2361 2368 2364 2361 2356 2353 2352 2348 2346 2340 2333 2324 2316 2310 2303 2294 2286 2279 2270 2260 2251 2246 2242 2239 2236 2232 2228 2226 2225 2226 2226 2225 2222 2219 2215 2211 2204 2194 2181 2168 2158 2147 2137 2128 2120 2112 2104 2097 2090 2084 2082 2080 2078 2077 2075 2075 2077 2078 2077 2077 2076 2075 2073 2073 2077 2082 2087 2093 2100 2105 2105 2102 2098 2096 2094 2093 2092 2091 2091 2089 2090 2089 2085 2081 2077 2075 2073 2071 2069 2072 2078 2083 2086 2092 2096 2098 2100 2104 2110 2118 2125 2132 2139 2146 
2258 2264 2270 2279 2287 2315 2330 2350 2354 2363 2350 2349 2341 2334 2329 2328 2326 2318 2311 2306 2303 2297 2292 2285 2278 2269 2258 2249 2241 2236 2232 2230 2229 2226 2224 2222 2222 2223 2223 2221 2217 2213 2208 2202 2192 2182 2172 2158 2145 2137 2127 2118 2108 2101 2095 2087 2080 2076 2073 2071 2069 2069 2070 2072 2071 2069 2068 2068 2068 2068 2068 2069 2071 2073 2077 2084 2090 2093 2094 2094 2093 2091 2090 2089 2087 2084 2082 2081 2079 2076 2072 2069 2067 2065 2064 2065 2068 2073 2077 2081 2085 2088 2091 2094 2100 2107 2114 2121 2128 2135 2141 
2260 2261 2264 2270 2275 2301 2311 2341 2348 2348 2345 2341 2321 2316 2313 2310 2306 2303 2299 2296 2293 2290 2287 2284 2279 2271 2262 2250 2239 2232 2228 2225 2224 2224 2223 2221 2221 2221 2221 2220 2216 2211 2205 2199 2191 2180 2170 2158 2145 2135 2127 2118 2108 2100 2093 2083 2075 2068 2065 2064 2063 2063 2064 2065 2065 2062 2059 2057 2058 2060 2060 2059 2059 2060 2063 2067 2075 2081 2084 2086 2086 2087 2085 2082 2078 2077 2078 2074 2070 2065 2062 2061 2059 2059 2059 2061 2066 2071 2072 2075 2079 2083 2087 2094 2102 2106 2111 2118 2123 2128 2134 
2260 2262 2264 2268 2281 2295 2304 2317 2342 2354 2353 2321 2305 2301 2299 2294 2292 2289 2288 2287 2284 2281 2279 2277 2274 2268 2256 2246 2237 2229 2224 2220 2218 2217 2217 2219 2219 2219 2218 2215 2211 2204 2198 2193 2185 2175 2166 2158 2148 2137 2125 2115 2107 2098 2089 2079 2069 2062 2059 2057 2057 2056 2056 2057 2056 2054 2051 2049 2048 2049 2046 2043 2043 2043 2045 2052 2061 2067 2069 2070 2074 2076 2076 2074 2073 2072 2069 2065 2060 2055 2053 2053 2054 2055 2056 2059 2062 2066 2070 2073 2077 2083 2089 2096 2101 2104 2107 2112 2119 2125 2130 
2257 2260 2265 2272 2283 2293 2296 2302 2316 2317 2322 2313 2298 2292 2288 2284 2282 2281 2279 2278 2277 2275 2272 2270 2265 2259 2251 2242 2233 2224 2219 2216 2212 2208 2209 2210 2211 2210 2208 2205 2202 2196 2190 2183 2176 2169 2163 2156 2147 2135 2121 2112 2104 2093 2082 2072 2064 2058 2053 2050 2048 2048 2046 2044 2042 2041 2040 2040 2038 2035 2032 2031 2031 2033 2036 2042 2047 2053 2056 2058 2059 2062 2063 2065 2065 2061 2057 2052 2049 2046 2045 2046 2047 2050 2052 2055 2060 2065 2070 2075 2081 2086 2091 2098 2101 2103 2106 2112 2119 2126 2131 
