ncols        360
nrows        53
xllcorner    -121.810972222
yllcorner    3376.81180556
cellsize 30
2621 2622 2626 2631 2635 2644 2651 2656 2663 2669 2674 2677 2683 2691 2701 2707 2714 2722 2731 2739 2754 2768 2769 2771 2778 2785 2789 2788 2786 2792 2796 2799 2806 2805 2805 2810 2819 2830 2842 2852 2865 2870 2873 2874 2882 2890 2894 2902 2910 2920 2926 2936 2945 2948 2955 2960 2968 2975 2981 2987 2994 3001 3011 3021 3029 3042 3053 3066 3072 3079 3102 3113 3131 3148 3163 3177 3186 3194 3203 3210 3222 3238 3278 3286 3294 3299 3317 3330 3344 3364 3386 3404 3423 3442 3456 3467 3471 3476 3491 3498 3505 3510 3519 3530 3537 3543 3557 3562 3570 3578 3590 3593 3605 3625 3631 3637 3643 3655 3667 3676 3680 3689 3700 3717 3739 3759 3778 3791 3797 3809 3815 3825 3836 3853 3871 3887 3898 3913 3924 3932 3940 3953 3968 3975 3978 3988 3993 4005 4016 4029 4039 4044 4052 4064 4082 4097 4107 4113 4118 4102 4122 4141 4145 4151 4152 4142 4146 4155 4158 4161 4162 4166 4162 4161 4171 4173 4179 4184 4189 4190 4191 4191 4187 4185 4182 4184 4182 4178 4172 4165 4164 4165 4164 4159 4154 4149 4145 4140 4133 4126 4121 4120 4119 4116 4110 4099 4089 4082 4074 4069 4064 4056 4048 4041 4031 4026 4021 4017 4012 4010 4009 4004 3998 3994 3991 3988 3985 3979 3971 3966 3960 3953 3947 3938 3926 3905 3882 3866 3857 3856 3858 3829 3753 3698 3694 3692 3685 3671 3657 3646 3636 3629 3625 3620 3611 3603 3598 3593 3589 3587 3582 3576 3568 3557 3547 3536 3533 3532 3529 3525 3521 3518 3514 3510 3500 3486 3477 3473 3464 3452 3440 3430 3416 3402 3390 3377 3366 3359 3351 3343 3332 3323 3322 3320 3316 3313 3310 3307 3299 3291 3285 3281 3280 3276 3265 3256 3246 3230 3225 3221 3224 3220 3217 3208 3202 3194 3182 3163 3145 3110 3105 3092 3083 3073 3064 3064 3068 3067 3066 3065 3065 3061 3046 3029 3021 3018 3013 3007 3001 2996 2987 2979 2968 2954 2943 2930 2917 2910 2888 2858 2841 2824 2812 2802 2780 2768 2751 2728 2709 2695
2622 2625 2629 2634 2640 2648 2654 2658 2667 2677 2680 2685 2691 2699 2707 2715 2723 2730 2736 2751 2766 2777 2784 2785 2791 2796 2801 2803 2802 2808 2809 2811 2817 2818 2820 2818 2828 2837 2846 2861 2871 2875 2875 2879 2888 2899 2906 2913 2922 2928 2935 2942 2947 2950 2958 2965 2973 2984 2988 2995 3001 3006 3015 3023 3029 3038 3050 3060 3074 3085 3099 3115 3128 3146 3162 3174 3189 3200 3209 3222 3233 3253 3284 3295 3297 3300 3311 3335 3360 3383 3394 3407 3424 3449 3462 3475 3481 3493 3500 3508 3516 3520 3530 3539 3552 3566 3576 3581 3587 3602 3610 3616 3623 3639 3646 3653 3658 3669 3679 3682 3689 3699 3720 3735 3756 3767 3777 3799 3812 3819 3827 3832 3836 3851 3875 3895 3912 3924 3937 3943 3955 3964 3974 3982 3990 3999 4007 4018 4030 4038 4049 4058 4068 4080 4091 4102 4114 4121 4125 4136 4144 4146 4150 4153 4158 4161 4164 4167 4170 4174 4176 4178 4173 4170 4185 4197 4195 4195 4199 4199 4198 4196 4196 4194 4193 4193 4193 4190 4185 4180 4178 4176 4170 4165 4160 4157 4152 4149 4142 4133 4129 4127 4123 4116 4106 4098 4093 4087 4078 4070 4065 4062 4050 4038 4028 4021 4019 4015 4009 4002 3996 3993 3991 3988 3985 3983 3980 3976 3972 3966 3957 3949 3942 3936 3930 3910 3889 3872 3859 3840 3815 3785 3751 3687 3684 3674 3661 3651 3643 3636 3629 3624 3620 3614 3607 3600 3594 3588 3584 3583 3582 3571 3557 3548 3540 3537 3535 3531 3525 3516 3508 3506 3505 3500 3493 3482 3471 3467 3461 3449 3436 3427 3411 3392 3381 3370 3357 3344 3337 3334 3327 3321 3318 3317 3312 3306 3299 3291 3285 3280 3276 3274 3265 3253 3239 3223 3214 3211 3199 3195 3198 3201 3202 3198 3192 3182 3159 3147 3123 3104 3087 3070 3063 3052 3043 3045 3041 3033 3026 3026 3034 3036 3014 3001 2989 2979 2971 2965 2962 2951 2943 2930 2919 2915 2906 2899 2881 2862 2844 2831 2814 2801 2786 2777 2766 2755 2739 2722 2706 2687
2622 2625 2633 2641 2647 2653 2660 2665 2671 2679 2685 2694 2703 2709 2714 2721 2731 2736 2743 2760 2773 2783 2789 2796 2801 2805 2810 2816 2820 2822 2821 2822 2824 2825 2828 2829 2836 2847 2858 2870 2879 2882 2884 2888 2897 2907 2914 2922 2933 2942 2948 2952 2952 2957 2963 2967 2977 2985 2992 2998 3004 3011 3019 3026 3035 3045 3054 3066 3078 3092 3108 3121 3135 3145 3159 3170 3183 3199 3210 3231 3238 3263 3293 3303 3311 3310 3333 3350 3373 3387 3397 3403 3422 3442 3463 3474 3488 3502 3515 3523 3531 3536 3541 3558 3570 3584 3591 3595 3602 3612 3621 3624 3630 3643 3652 3666 3670 3679 3685 3690 3695 3711 3741 3757 3774 3780 3791 3806 3816 3824 3832 3838 3847 3852 3872 3898 3917 3929 3937 3949 3961 3972 3989 4003 4006 4011 4017 4030 4043 4053 4063 4078 4086 4094 4101 4112 4127 4134 4142 4148 4154 4157 4159 4157 4165 4171 4181 4180 4175 4175 4174 4172 4171 4185 4191 4204 4205 4207 4206 4207 4206 4206 4202 4200 4199 4200 4200 4200 4200 4197 4192 4187 4180 4173 4171 4168 4170 4168 4160 4151 4143 4136 4128 4117 4106 4099 4094 4087 4079 4072 4067 4063 4051 4035 4027 4022 4020 4017 4010 4003 3997 3992 3988 3982 3978 3975 3972 3969 3964 3957 3950 3943 3939 3936 3929 3919 3903 3886 3853 3827 3804 3778 3746 3715 3693 3670 3658 3646 3635 3628 3624 3619 3614 3609 3602 3595 3585 3578 3574 3571 3565 3556 3547 3540 3538 3535 3534 3529 3520 3512 3505 3502 3501 3495 3486 3478 3470 3464 3460 3449 3435 3419 3400 3384 3372 3358 3344 3337 3331 3325 3322 3317 3311 3304 3299 3294 3288 3280 3271 3265 3261 3253 3239 3222 3209 3194 3181 3170 3169 3162 3158 3157 3151 3156 3157 3147 3140 3116 3095 3080 3039 3050 3046 3033 3027 3026 3022 3014 3007 3009 3001 2999 2967 2949 2939 2932 2925 2920 2907 2897 2890 2886 2884 2879 2864 2847 2839 2817 2802 2783 2768 2764 2771 2758 2754 2750 2745 2730 2716 2682
2623 2631 2643 2648 2652 2660 2668 2674 2682 2689 2698 2704 2712 2718 2722 2728 2736 2744 2753 2764 2778 2787 2796 2803 2808 2810 2815 2823 2825 2827 2829 2831 2835 2837 2838 2839 2848 2863 2866 2876 2887 2890 2893 2899 2906 2912 2921 2932 2941 2950 2957 2960 2963 2965 2971 2971 2977 2986 2994 3001 3008 3015 3021 3032 3042 3052 3062 3076 3087 3100 3115 3128 3136 3145 3158 3166 3176 3189 3208 3234 3244 3269 3291 3310 3317 3327 3350 3370 3383 3394 3401 3410 3420 3441 3464 3481 3494 3516 3534 3543 3549 3550 3558 3573 3587 3596 3608 3616 3621 3626 3626 3634 3638 3645 3660 3681 3684 3690 3694 3709 3733 3721 3762 3775 3782 3792 3800 3809 3819 3827 3835 3843 3857 3866 3876 3890 3919 3928 3938 3953 3968 3985 3999 4010 4014 4019 4024 4034 4046 4055 4068 4090 4101 4111 4123 4134 4140 4147 4154 4160 4168 4176 4171 4182 4203 4198 4191 4189 4186 4179 4181 4174 4178 4202 4205 4214 4216 4217 4222 4218 4217 4218 4215 4211 4209 4210 4212 4211 4210 4207 4202 4195 4191 4184 4187 4187 4182 4177 4175 4164 4153 4146 4137 4127 4118 4111 4102 4092 4080 4076 4074 4069 4062 4051 4039 4033 4027 4021 4017 4015 4010 3998 3987 3982 3977 3973 3968 3963 3959 3954 3949 3945 3941 3937 3936 3936 3921 3869 3844 3813 3793 3774 3749 3721 3695 3673 3648 3637 3628 3621 3615 3610 3605 3600 3591 3579 3572 3568 3564 3559 3555 3551 3545 3537 3531 3531 3528 3524 3521 3514 3507 3504 3502 3498 3491 3482 3473 3467 3461 3448 3432 3418 3394 3376 3370 3358 3344 3336 3329 3322 3314 3311 3309 3302 3292 3284 3275 3267 3259 3251 3243 3232 3220 3206 3190 3178 3167 3159 3143 3132 3123 3111 3109 3106 3103 3103 3104 3091 3079 3059 3011 3001 2999 2995 2994 2990 2994 3005 2996 2985 2972 2943 2932 2918 2908 2902 2898 2892 2883 2869 2856 2845 2837 2828 2820 2808 2795 2786 2768 2757 2748 2749 2759 2752 2743 2730 2716 2700 2687 2676
2632 2639 2652 2657 2658 2664 2671 2680 2692 2702 2708 2714 2719 2725 2730 2736 2743 2752 2766 2778 2785 2793 2805 2812 2814 2815 2816 2820 2826 2830 2835 2839 2841 2845 2854 2857 2868 2877 2879 2884 2892 2895 2896 2904 2912 2919 2929 2937 2946 2954 2961 2966 2970 2974 2975 2977 2982 2990 2999 3006 3015 3022 3032 3040 3050 3059 3069 3082 3096 3109 3118 3129 3141 3152 3160 3167 3176 3188 3203 3227 3245 3268 3282 3296 3313 3329 3355 3372 3387 3397 3410 3416 3421 3436 3459 3479 3493 3529 3546 3553 3557 3563 3571 3586 3594 3610 3622 3635 3637 3643 3648 3650 3658 3654 3669 3694 3695 3698 3708 3738 3759 3763 3772 3783 3790 3797 3806 3814 3820 3827 3836 3850 3865 3878 3892 3909 3923 3933 3945 3964 3978 3992 4005 4015 4025 4030 4036 4041 4049 4064 4080 4101 4118 4131 4140 4144 4147 4151 4159 4175 4190 4199 4194 4207 4212 4216 4209 4202 4201 4197 4208 4202 4218 4226 4223 4218 4224 4235 4237 4235 4230 4228 4229 4227 4225 4218 4227 4225 4222 4221 4212 4206 4206 4203 4203 4200 4195 4188 4182 4177 4169 4161 4153 4140 4127 4119 4111 4102 4096 4090 4082 4076 4066 4055 4043 4037 4030 4023 4019 4014 4005 3995 3989 3984 3980 3975 3970 3964 3959 3956 3953 3947 3942 3938 3936 3938 3941 3863 3829 3808 3786 3764 3744 3713 3694 3670 3645 3631 3622 3612 3604 3596 3591 3583 3573 3565 3559 3557 3556 3553 3550 3549 3545 3541 3533 3523 3520 3520 3519 3516 3510 3503 3500 3498 3492 3483 3475 3466 3459 3455 3442 3422 3406 3395 3383 3370 3356 3342 3329 3320 3313 3309 3302 3294 3286 3279 3264 3248 3238 3232 3227 3214 3199 3187 3168 3159 3159 3152 3140 3107 3099 3093 3092 3090 3087 3081 3078 3067 3050 3014 3001 2989 2978 2970 2964 2964 2974 2978 2976 2973 2969 2958 2942 2895 2887 2885 2877 2872 2860 2847 2838 2825 2817 2808 2798 2789 2778 2766 2753 2742 2740 2748 2724 2724 2716 2704 2690 2682 2672 2661
2648 2656 2661 2664 2665 2669 2676 2686 2697 2706 2714 2720 2725 2732 2738 2744 2752 2764 2779 2787 2795 2804 2813 2816 2817 2817 2818 2821 2827 2834 2840 2841 2842 2844 2850 2869 2877 2883 2886 2895 2906 2903 2907 2911 2918 2926 2934 2943 2952 2958 2964 2970 2974 2977 2979 2983 2989 2997 3006 3015 3025 3034 3040 3048 3054 3065 3077 3090 3103 3111 3121 3136 3146 3156 3163 3172 3184 3196 3208 3228 3246 3264 3273 3287 3301 3323 3343 3365 3376 3396 3412 3422 3427 3433 3452 3468 3481 3537 3548 3556 3568 3579 3584 3600 3614 3635 3646 3650 3662 3671 3669 3674 3683 3680 3687 3702 3714 3723 3728 3770 3779 3775 3787 3804 3797 3801 3803 3810 3818 3827 3850 3857 3871 3883 3921 3923 3930 3943 3962 3974 3986 3998 4008 4021 4034 4041 4045 4050 4056 4071 4087 4103 4128 4142 4152 4157 4161 4166 4173 4193 4211 4217 4215 4219 4221 4224 4229 4226 4229 4238 4238 4247 4256 4251 4237 4239 4249 4252 4252 4249 4242 4237 4244 4250 4250 4243 4249 4246 4242 4235 4227 4221 4220 4220 4218 4212 4204 4200 4194 4188 4181 4175 4165 4154 4138 4124 4118 4112 4107 4102 4096 4087 4078 4068 4056 4041 4031 4024 4022 4020 4011 3999 3989 3985 3977 3971 3967 3962 3958 3955 3952 3946 3940 3936 3938 3899 3878 3855 3827 3808 3782 3762 3743 3716 3683 3648 3632 3622 3609 3599 3589 3580 3573 3563 3552 3547 3547 3544 3540 3538 3538 3535 3530 3527 3525 3521 3514 3513 3513 3510 3504 3496 3491 3490 3487 3479 3464 3455 3458 3456 3439 3413 3397 3390 3384 3378 3365 3351 3337 3326 3316 3305 3296 3283 3274 3263 3250 3236 3226 3219 3210 3193 3175 3154 3140 3134 3126 3113 3101 3087 3082 3082 3074 3068 3059 3055 3068 3056 3035 3013 2999 2985 2968 2954 2944 2942 2942 2953 2949 2941 2933 2911 2892 2881 2873 2866 2858 2849 2840 2830 2823 2814 2805 2798 2780 2776 2768 2755 2740 2730 2725 2720 2713 2710 2702 2695 2688 2682 2673 2664
2665 2669 2671 2672 2674 2680 2688 2694 2701 2709 2718 2727 2734 2740 2746 2751 2758 2771 2784 2794 2802 2810 2815 2818 2819 2820 2823 2828 2834 2839 2843 2846 2845 2848 2864 2875 2877 2881 2892 2909 2917 2919 2917 2918 2923 2927 2939 2950 2958 2964 2967 2973 2979 2982 2983 2987 2994 3003 3014 3026 3035 3040 3047 3053 3062 3073 3083 3093 3104 3115 3128 3141 3153 3162 3169 3182 3197 3205 3215 3230 3244 3259 3272 3286 3302 3321 3343 3359 3375 3391 3411 3424 3433 3442 3451 3461 3483 3532 3549 3564 3573 3581 3602 3616 3634 3657 3671 3674 3684 3685 3689 3698 3712 3715 3726 3734 3747 3750 3764 3796 3805 3801 3821 3826 3831 3819 3815 3829 3839 3847 3883 3864 3870 3887 3926 3939 3941 3949 3964 3979 3990 4002 4015 4028 4039 4045 4049 4055 4068 4081 4101 4130 4145 4159 4168 4174 4183 4192 4203 4213 4222 4230 4236 4242 4243 4248 4251 4251 4257 4261 4268 4271 4277 4271 4276 4264 4284 4269 4263 4261 4260 4253 4257 4274 4274 4271 4266 4264 4264 4256 4248 4239 4238 4237 4233 4227 4214 4206 4204 4200 4195 4191 4186 4174 4155 4138 4127 4120 4112 4106 4100 4091 4082 4074 4063 4050 4038 4036 4034 4032 4022 4006 3993 3983 3973 3961 3956 3954 3950 3946 3943 3940 3937 3933 3932 3895 3870 3852 3830 3806 3784 3761 3726 3697 3669 3646 3631 3616 3595 3586 3576 3569 3560 3547 3544 3542 3540 3539 3533 3528 3526 3524 3522 3522 3520 3516 3513 3511 3506 3501 3493 3485 3482 3481 3481 3476 3467 3459 3451 3439 3418 3401 3389 3381 3376 3371 3364 3354 3340 3330 3320 3308 3293 3279 3270 3256 3240 3223 3210 3196 3181 3161 3143 3136 3130 3112 3091 3084 3079 3077 3075 3068 3058 3048 3050 3051 3049 3037 3016 3000 2988 2975 2959 2946 2937 2930 2925 2918 2913 2913 2905 2887 2872 2862 2853 2845 2845 2841 2829 2821 2812 2808 2798 2795 2788 2781 2773 2763 2747 2736 2728 2720 2714 2709 2701 2697 2693 2687 2681 2672
2678 2682 2682 2679 2682 2686 2694 2707 2712 2717 2727 2737 2745 2751 2755 2757 2762 2774 2786 2796 2803 2808 2815 2820 2823 2826 2829 2834 2839 2844 2848 2851 2859 2868 2870 2873 2880 2889 2894 2906 2916 2919 2922 2925 2929 2935 2942 2955 2965 2970 2972 2975 2980 2986 2990 2996 3003 3012 3025 3034 3039 3045 3051 3059 3068 3076 3083 3091 3103 3117 3131 3145 3160 3172 3182 3194 3204 3212 3218 3229 3242 3255 3273 3290 3307 3327 3349 3366 3379 3394 3412 3428 3439 3451 3464 3481 3494 3521 3546 3563 3575 3607 3631 3628 3640 3664 3677 3683 3692 3700 3708 3712 3722 3742 3755 3759 3759 3768 3787 3815 3819 3830 3838 3846 3854 3863 3865 3879 3877 3896 3905 3880 3886 3895 3938 3950 3953 3961 3975 3983 3997 4015 4028 4042 4045 4046 4054 4066 4081 4103 4123 4140 4158 4169 4179 4188 4200 4212 4223 4227 4235 4241 4246 4255 4266 4270 4274 4274 4277 4281 4280 4281 4286 4292 4299 4310 4307 4292 4287 4282 4279 4285 4290 4292 4293 4295 4283 4285 4283 4279 4270 4258 4256 4253 4247 4238 4230 4224 4213 4208 4205 4202 4194 4179 4156 4142 4136 4128 4118 4109 4100 4093 4083 4074 4066 4056 4045 4043 4046 4041 4029 4012 3994 3981 3972 3963 3954 3948 3945 3941 3936 3936 3937 3936 3930 3896 3867 3846 3824 3797 3770 3743 3712 3681 3666 3649 3633 3615 3596 3569 3560 3554 3549 3547 3545 3544 3540 3535 3529 3523 3520 3521 3521 3521 3521 3521 3517 3510 3500 3493 3485 3479 3480 3482 3483 3479 3466 3454 3446 3436 3426 3405 3389 3387 3382 3370 3350 3335 3324 3321 3324 3315 3300 3284 3273 3259 3234 3216 3206 3191 3167 3147 3137 3130 3122 3109 3091 3080 3076 3071 3063 3053 3042 3035 3031 3025 3017 3009 3001 2993 2985 2974 2956 2939 2929 2922 2912 2902 2898 2894 2892 2880 2864 2851 2840 2837 2836 2830 2821 2814 2807 2801 2797 2791 2785 2778 2773 2764 2749 2739 2729 2721 2718 2714 2709 2702 2696 2689 2683 2675
2689 2691 2688 2687 2688 2691 2699 2714 2728 2735 2741 2748 2754 2759 2760 2761 2764 2774 2787 2796 2803 2807 2812 2819 2827 2832 2837 2840 2842 2844 2849 2857 2867 2876 2880 2883 2888 2893 2899 2909 2918 2924 2930 2937 2942 2948 2955 2964 2973 2977 2979 2979 2982 2987 2996 3006 3015 3023 3030 3038 3044 3050 3061 3069 3078 3084 3089 3095 3106 3120 3135 3150 3163 3175 3188 3198 3208 3214 3224 3235 3244 3258 3273 3290 3308 3332 3351 3368 3383 3399 3420 3437 3450 3462 3477 3490 3503 3508 3529 3574 3595 3620 3636 3639 3646 3662 3674 3684 3698 3711 3716 3723 3734 3750 3761 3761 3764 3773 3793 3813 3829 3841 3849 3857 3870 3886 3896 3901 3905 3911 3921 3916 3918 3926 3958 3963 3973 3985 3991 3999 4006 4030 4046 4053 4054 4059 4066 4082 4101 4117 4130 4143 4162 4178 4189 4200 4213 4225 4234 4243 4249 4254 4260 4268 4279 4286 4288 4289 4292 4294 4295 4294 4298 4306 4311 4314 4319 4321 4318 4309 4307 4319 4314 4311 4308 4303 4298 4296 4296 4289 4288 4279 4275 4264 4253 4245 4240 4236 4228 4217 4211 4208 4203 4189 4172 4154 4143 4134 4123 4114 4104 4097 4085 4073 4062 4053 4052 4049 4044 4042 4035 4016 3993 3980 3974 3965 3954 3947 3942 3938 3933 3933 3935 3931 3920 3894 3866 3842 3818 3792 3757 3728 3703 3670 3652 3644 3627 3603 3584 3550 3548 3545 3541 3539 3541 3538 3531 3526 3521 3519 3518 3518 3519 3523 3526 3525 3523 3515 3500 3489 3479 3475 3477 3484 3484 3467 3452 3448 3444 3444 3436 3420 3404 3391 3380 3371 3355 3331 3338 3323 3315 3304 3290 3276 3271 3246 3225 3210 3200 3189 3175 3158 3148 3136 3111 3092 3081 3076 3072 3064 3051 3038 3031 3027 3023 3016 3009 3003 2996 2988 2979 2969 2953 2936 2924 2916 2911 2903 2894 2888 2883 2874 2860 2850 2842 2837 2831 2823 2816 2811 2806 2800 2795 2789 2784 2779 2772 2764 2754 2745 2737 2727 2722 2717 2711 2704 2696 2688 2682 2675
2691 2693 2697 2697 2695 2696 2709 2728 2742 2750 2754 2757 2760 2764 2764 2761 2762 2771 2783 2794 2800 2804 2812 2825 2833 2840 2845 2846 2845 2848 2855 2864 2874 2880 2884 2887 2892 2896 2904 2914 2922 2929 2936 2942 2947 2953 2962 2970 2976 2983 2987 2991 3000 3006 3011 3019 3025 3031 3039 3046 3056 3067 3075 3084 3090 3095 3103 3110 3117 3129 3141 3154 3167 3182 3195 3204 3213 3228 3240 3248 3258 3269 3283 3299 3320 3334 3350 3365 3381 3397 3420 3444 3456 3464 3473 3484 3498 3518 3558 3597 3600 3616 3632 3637 3646 3661 3673 3685 3699 3711 3726 3735 3745 3759 3768 3771 3778 3789 3802 3823 3836 3849 3857 3864 3878 3896 3906 3913 3919 3925 3931 3933 3929 3941 3965 3975 3989 4010 4019 4017 4020 4041 4052 4057 4061 4070 4081 4104 4129 4136 4143 4156 4173 4189 4199 4208 4217 4228 4242 4253 4262 4270 4273 4279 4286 4293 4298 4301 4304 4306 4305 4306 4307 4313 4321 4323 4325 4325 4326 4318 4321 4321 4324 4324 4320 4307 4300 4301 4299 4294 4290 4292 4291 4283 4265 4254 4249 4245 4239 4232 4224 4216 4212 4207 4188 4169 4154 4147 4133 4121 4111 4100 4088 4078 4070 4063 4059 4055 4047 4035 4023 4010 3997 3983 3973 3965 3954 3943 3937 3934 3931 3927 3924 3922 3914 3896 3869 3846 3817 3786 3761 3725 3699 3671 3658 3634 3616 3592 3569 3548 3543 3540 3536 3533 3529 3525 3522 3518 3515 3514 3514 3513 3510 3511 3517 3517 3509 3501 3494 3487 3483 3479 3475 3468 3458 3455 3452 3444 3440 3438 3434 3420 3412 3404 3394 3380 3367 3354 3342 3333 3322 3310 3297 3279 3260 3246 3228 3206 3190 3174 3183 3175 3163 3116 3083 3078 3072 3070 3066 3055 3044 3032 3024 3021 3018 3014 3008 2998 2988 2981 2974 2966 2956 2942 2929 2918 2909 2901 2893 2888 2884 2874 2865 2856 2847 2841 2834 2823 2815 2810 2804 2797 2796 2791 2784 2781 2778 2769 2760 2751 2743 2735 2728 2720 2711 2702 2695 2688 2680 2672
2699 2702 2706 2710 2708 2706 2718 2737 2752 2762 2765 2766 2768 2769 2769 2771 2770 2780 2788 2791 2798 2807 2819 2830 2839 2845 2849 2853 2856 2859 2864 2871 2879 2884 2888 2893 2899 2902 2908 2917 2926 2932 2939 2946 2949 2956 2961 2966 2974 2984 2995 3005 3016 3023 3029 3037 3042 3047 3053 3060 3070 3078 3088 3095 3102 3113 3121 3130 3138 3149 3161 3171 3186 3196 3207 3216 3230 3246 3255 3266 3279 3288 3297 3308 3322 3335 3343 3356 3372 3389 3412 3436 3458 3467 3473 3482 3496 3528 3561 3587 3611 3621 3626 3631 3643 3661 3677 3690 3702 3718 3736 3746 3757 3768 3778 3788 3801 3816 3830 3837 3849 3859 3867 3876 3892 3905 3915 3925 3935 3942 3943 3938 3936 3944 3973 3987 4005 4024 4031 4030 4037 4050 4055 4059 4062 4071 4097 4122 4145 4154 4161 4174 4187 4197 4204 4213 4224 4238 4250 4261 4273 4280 4284 4288 4294 4301 4307 4311 4315 4316 4317 4319 4320 4328 4332 4328 4326 4325 4326 4321 4315 4315 4323 4321 4313 4308 4304 4307 4308 4310 4304 4300 4296 4287 4271 4263 4261 4258 4251 4246 4242 4234 4222 4213 4202 4187 4165 4154 4149 4137 4120 4106 4094 4088 4086 4082 4076 4067 4055 4046 4036 4025 4009 3987 3974 3963 3950 3939 3933 3933 3930 3927 3924 3920 3912 3891 3866 3841 3823 3803 3781 3743 3710 3683 3666 3640 3619 3595 3572 3546 3536 3529 3525 3524 3521 3516 3513 3509 3507 3506 3506 3506 3503 3497 3496 3501 3499 3491 3486 3480 3475 3469 3465 3458 3458 3461 3466 3461 3462 3455 3448 3438 3427 3416 3404 3393 3380 3367 3351 3342 3331 3317 3302 3283 3258 3240 3222 3206 3191 3180 3165 3153 3136 3119 3101 3084 3075 3072 3067 3058 3043 3030 3023 3021 3019 3015 3008 2996 2984 2978 2972 2961 2950 2940 2929 2922 2913 2900 2890 2885 2881 2877 2870 2860 2850 2838 2828 2819 2815 2808 2802 2799 2797 2794 2789 2785 2782 2777 2769 2759 2750 2740 2731 2722 2714 2704 2693 2687 2680 2671
2710 2710 2716 2719 2718 2715 2726 2747 2762 2769 2773 2775 2773 2775 2778 2780 2786 2790 2792 2793 2797 2805 2817 2829 2839 2846 2853 2859 2866 2868 2871 2877 2882 2887 2894 2901 2905 2909 2912 2916 2924 2933 2939 2944 2947 2951 2958 2963 2972 2988 3003 3015 3025 3032 3041 3048 3055 3061 3066 3071 3078 3088 3099 3109 3121 3132 3142 3151 3161 3174 3188 3196 3205 3213 3220 3230 3243 3259 3269 3283 3298 3305 3312 3317 3325 3337 3348 3357 3368 3386 3405 3430 3448 3462 3472 3483 3500 3517 3542 3574 3599 3614 3621 3629 3643 3658 3675 3694 3704 3714 3732 3750 3760 3770 3782 3794 3813 3830 3837 3847 3856 3865 3873 3885 3903 3917 3926 3939 3951 3957 3958 3957 3968 3983 3989 4005 4017 4032 4045 4048 4056 4064 4062 4065 4082 4101 4118 4142 4153 4162 4171 4187 4200 4210 4219 4231 4241 4246 4254 4267 4277 4288 4292 4298 4303 4309 4316 4324 4328 4329 4330 4332 4338 4345 4345 4337 4339 4350 4353 4352 4344 4334 4330 4332 4335 4327 4315 4314 4316 4317 4315 4311 4303 4294 4292 4284 4270 4263 4254 4253 4250 4240 4228 4216 4202 4187 4176 4167 4158 4147 4134 4119 4105 4096 4090 4085 4080 4071 4058 4050 4047 4030 3996 3973 3967 3958 3945 3937 3931 3926 3926 3926 3923 3919 3910 3886 3859 3842 3829 3809 3788 3757 3722 3696 3671 3646 3625 3604 3571 3553 3536 3526 3521 3513 3508 3505 3504 3504 3503 3501 3500 3499 3496 3490 3486 3484 3481 3477 3473 3469 3465 3461 3459 3458 3459 3463 3467 3469 3471 3468 3465 3449 3445 3434 3421 3407 3390 3373 3356 3344 3333 3320 3305 3287 3269 3248 3233 3220 3202 3188 3170 3156 3139 3119 3102 3088 3078 3070 3059 3052 3038 3027 3023 3020 3019 3015 3006 2997 2985 2976 2972 2964 2950 2937 2927 2918 2910 2902 2893 2884 2881 2876 2867 2857 2847 2840 2831 2822 2812 2804 2799 2797 2797 2796 2793 2790 2786 2780 2773 2766 2757 2748 2738 2728 2717 2705 2697 2688 2677 2667
2716 2719 2723 2726 2724 2724 2732 2754 2766 2774 2780 2783 2784 2784 2783 2786 2789 2792 2796 2796 2796 2801 2814 2825 2835 2844 2856 2863 2869 2873 2877 2881 2884 2887 2894 2902 2907 2910 2913 2919 2926 2932 2938 2942 2945 2952 2960 2971 2981 2995 3009 3019 3029 3039 3049 3061 3069 3073 3073 3080 3090 3104 3115 3125 3137 3149 3158 3166 3175 3190 3204 3214 3220 3227 3237 3247 3260 3272 3284 3299 3310 3318 3325 3333 3340 3347 3359 3370 3380 3392 3409 3420 3436 3450 3464 3481 3501 3522 3539 3553 3577 3604 3616 3626 3643 3659 3673 3687 3696 3705 3723 3741 3758 3771 3783 3794 3806 3822 3833 3843 3854 3863 3878 3891 3907 3922 3938 3954 3961 3964 3970 3975 3985 3998 4003 4008 4022 4033 4042 4063 4079 4076 4074 4091 4116 4136 4153 4160 4160 4168 4182 4203 4219 4226 4239 4246 4249 4253 4259 4275 4288 4295 4301 4306 4309 4313 4321 4327 4332 4334 4336 4339 4340 4346 4359 4366 4368 4365 4363 4361 4352 4344 4341 4346 4352 4351 4340 4334 4332 4326 4322 4316 4309 4302 4299 4298 4288 4267 4254 4247 4244 4244 4238 4224 4210 4196 4182 4173 4161 4151 4140 4130 4118 4103 4091 4086 4079 4073 4062 4046 4030 4033 4014 3976 3960 3949 3941 3934 3927 3921 3917 3916 3913 3909 3899 3884 3869 3849 3833 3809 3796 3767 3733 3695 3667 3648 3630 3602 3578 3552 3536 3523 3512 3504 3499 3497 3497 3496 3496 3494 3491 3485 3480 3478 3475 3472 3467 3462 3459 3455 3452 3452 3453 3456 3455 3453 3475 3477 3479 3468 3463 3451 3444 3437 3426 3403 3396 3380 3358 3344 3334 3321 3311 3296 3280 3263 3246 3229 3213 3198 3182 3166 3147 3130 3112 3097 3082 3070 3058 3046 3034 3023 3017 3018 3016 3010 3000 2989 2979 2972 2965 2955 2948 2937 2926 2919 2912 2905 2895 2885 2879 2872 2864 2855 2845 2836 2827 2818 2811 2806 2803 2801 2799 2798 2796 2793 2789 2782 2774 2766 2761 2755 2742 2728 2718 2707 2696 2687 2679 2671
2743 2739 2744 2739 2740 2739 2748 2763 2772 2780 2786 2790 2793 2791 2791 2792 2795 2801 2803 2801 2803 2804 2818 2826 2837 2851 2862 2867 2871 2878 2882 2886 2887 2891 2895 2901 2908 2912 2915 2921 2928 2933 2939 2946 2952 2960 2971 2982 2994 3004 3012 3022 3036 3049 3064 3077 3081 3084 3088 3096 3111 3127 3134 3143 3152 3164 3171 3179 3189 3199 3211 3220 3228 3239 3247 3255 3270 3287 3297 3308 3316 3321 3331 3343 3349 3357 3371 3384 3392 3401 3412 3421 3433 3446 3461 3474 3487 3506 3525 3542 3567 3597 3623 3633 3639 3656 3674 3686 3694 3702 3717 3736 3752 3770 3783 3791 3803 3817 3829 3839 3849 3859 3874 3895 3911 3922 3936 3951 3959 3969 3978 3989 3997 3999 4002 4023 4038 4036 4043 4061 4085 4096 4099 4109 4121 4145 4165 4171 4172 4182 4202 4219 4223 4233 4246 4253 4260 4261 4264 4281 4302 4308 4310 4313 4314 4318 4319 4322 4325 4328 4333 4338 4344 4350 4358 4363 4365 4365 4362 4359 4358 4356 4353 4351 4350 4349 4349 4347 4340 4335 4332 4328 4321 4314 4306 4308 4299 4285 4273 4259 4257 4247 4241 4230 4218 4203 4189 4179 4168 4159 4149 4135 4123 4114 4103 4090 4081 4074 4063 4050 4038 4031 4012 3973 3948 3944 3939 3931 3924 3919 3914 3907 3903 3901 3891 3872 3863 3847 3828 3806 3789 3764 3733 3698 3670 3648 3629 3601 3576 3552 3529 3505 3497 3492 3492 3492 3490 3489 3485 3483 3477 3471 3468 3466 3460 3455 3449 3444 3444 3442 3437 3436 3446 3451 3444 3442 3450 3457 3481 3469 3457 3454 3437 3427 3410 3395 3384 3368 3359 3348 3337 3328 3315 3304 3291 3276 3260 3245 3229 3214 3197 3180 3162 3145 3130 3113 3094 3075 3058 3044 3033 3022 3013 3010 3006 3000 2997 2988 2979 2967 2957 2954 2949 2938 2927 2922 2915 2905 2895 2886 2878 2871 2865 2856 2844 2833 2825 2818 2812 2809 2806 2804 2802 2801 2799 2796 2791 2784 2777 2770 2762 2754 2745 2733 2720 2708 2696 2687 2682 2677
2772 2770 2772 2767 2767 2768 2769 2771 2783 2790 2794 2801 2803 2801 2800 2802 2804 2806 2809 2815 2821 2822 2830 2839 2847 2856 2863 2868 2871 2881 2889 2891 2894 2895 2896 2904 2914 2920 2921 2927 2934 2939 2948 2954 2960 2970 2981 2991 3002 3012 3021 3031 3043 3057 3070 3078 3087 3095 3103 3116 3129 3137 3143 3148 3159 3170 3180 3189 3198 3206 3216 3225 3235 3244 3252 3262 3275 3289 3301 3309 3316 3321 3333 3344 3355 3363 3377 3390 3401 3407 3413 3423 3436 3448 3459 3468 3474 3486 3503 3532 3560 3594 3623 3636 3645 3655 3672 3690 3698 3704 3718 3735 3748 3758 3773 3787 3799 3816 3828 3839 3848 3858 3871 3887 3904 3917 3925 3939 3954 3967 3983 3995 4003 4009 4022 4036 4039 4040 4050 4064 4075 4091 4099 4105 4140 4166 4182 4188 4189 4199 4208 4215 4229 4241 4252 4266 4273 4274 4281 4297 4306 4308 4311 4313 4315 4315 4317 4317 4318 4322 4327 4335 4344 4351 4359 4366 4369 4369 4364 4360 4358 4356 4352 4351 4353 4352 4352 4352 4346 4342 4344 4342 4334 4328 4326 4326 4325 4315 4297 4281 4268 4255 4244 4234 4224 4211 4195 4183 4174 4165 4152 4141 4132 4120 4109 4101 4089 4076 4066 4058 4050 4040 4034 4024 3983 3936 3924 3919 3915 3910 3904 3900 3898 3897 3879 3862 3844 3821 3799 3786 3768 3747 3720 3691 3666 3642 3626 3599 3565 3544 3525 3498 3490 3488 3486 3485 3483 3479 3475 3470 3465 3460 3455 3451 3443 3433 3426 3428 3425 3419 3419 3427 3435 3440 3445 3445 3451 3457 3452 3451 3450 3439 3434 3421 3402 3385 3369 3358 3349 3346 3339 3332 3324 3314 3303 3289 3275 3262 3251 3234 3217 3196 3179 3159 3143 3125 3103 3085 3065 3048 3033 3022 3013 3003 2997 2994 2989 2980 2975 2972 2966 2958 2947 2936 2928 2922 2916 2907 2899 2891 2882 2875 2867 2860 2849 2836 2830 2825 2820 2816 2812 2810 2809 2806 2803 2799 2792 2786 2780 2773 2765 2754 2744 2735 2725 2712 2700 2692 2685 2678
2793 2791 2797 2797 2798 2795 2787 2791 2802 2805 2808 2811 2812 2811 2811 2811 2813 2814 2818 2827 2831 2837 2848 2854 2857 2861 2864 2869 2875 2884 2890 2894 2897 2898 2903 2912 2924 2930 2932 2935 2945 2953 2961 2969 2976 2986 2994 3002 3012 3020 3030 3042 3054 3068 3079 3090 3096 3105 3117 3127 3138 3143 3146 3151 3161 3172 3182 3192 3205 3215 3225 3231 3240 3248 3257 3267 3279 3291 3301 3308 3315 3319 3328 3340 3351 3362 3372 3389 3402 3410 3416 3423 3436 3450 3462 3470 3474 3476 3494 3507 3542 3583 3612 3643 3653 3659 3672 3689 3700 3709 3722 3735 3744 3752 3763 3779 3792 3807 3825 3837 3847 3858 3872 3885 3899 3913 3925 3937 3951 3966 3980 3994 4010 4020 4030 4037 4045 4051 4064 4068 4072 4078 4088 4098 4115 4156 4190 4208 4209 4209 4217 4231 4244 4255 4267 4275 4281 4287 4293 4302 4306 4308 4310 4308 4309 4311 4313 4315 4317 4322 4327 4332 4340 4352 4363 4370 4375 4377 4374 4364 4358 4356 4354 4351 4350 4354 4357 4359 4361 4362 4360 4351 4344 4337 4332 4331 4323 4312 4301 4284 4268 4259 4252 4240 4222 4207 4199 4189 4178 4167 4163 4155 4137 4121 4106 4096 4095 4086 4067 4055 4050 4041 4025 4013 4012 3991 3940 3907 3905 3901 3895 3891 3891 3891 3860 3838 3812 3795 3777 3764 3745 3727 3707 3685 3662 3641 3619 3583 3563 3548 3534 3502 3500 3494 3488 3484 3481 3474 3466 3460 3455 3449 3444 3438 3430 3423 3418 3415 3411 3406 3404 3406 3409 3414 3420 3432 3442 3446 3426 3429 3433 3438 3429 3415 3407 3387 3368 3355 3347 3347 3339 3331 3324 3316 3305 3293 3280 3269 3258 3245 3230 3216 3192 3184 3159 3138 3115 3095 3078 3059 3043 3022 3009 3000 2990 2985 2979 2973 2970 2966 2959 2964 2953 2943 2932 2924 2918 2910 2901 2893 2886 2879 2872 2863 2854 2847 2839 2832 2827 2823 2819 2814 2811 2810 2807 2803 2797 2789 2783 2776 2767 2756 2743 2730 2720 2709 2698 2691 2685 2679
2802 2807 2810 2819 2814 2818 2813 2812 2816 2818 2816 2818 2819 2819 2817 2818 2821 2823 2828 2835 2842 2849 2860 2868 2869 2867 2873 2877 2882 2887 2895 2901 2907 2912 2914 2923 2929 2936 2940 2947 2959 2968 2976 2980 2989 3000 3009 3012 3021 3030 3045 3059 3071 3080 3091 3103 3108 3114 3119 3131 3137 3144 3153 3158 3166 3174 3183 3194 3207 3220 3230 3238 3243 3252 3261 3275 3285 3295 3303 3307 3314 3322 3329 3338 3350 3358 3369 3384 3401 3413 3422 3434 3442 3457 3469 3478 3482 3488 3500 3513 3532 3568 3588 3618 3650 3656 3665 3684 3706 3715 3727 3735 3740 3748 3761 3777 3790 3801 3815 3830 3842 3856 3868 3882 3893 3910 3925 3936 3952 3967 3978 3991 4010 4024 4035 4048 4057 4073 4083 4090 4088 4093 4099 4101 4096 4151 4196 4206 4214 4222 4232 4240 4248 4260 4271 4278 4288 4294 4303 4309 4311 4311 4308 4307 4307 4308 4309 4312 4317 4322 4328 4333 4338 4343 4357 4372 4377 4381 4379 4373 4365 4361 4359 4359 4358 4358 4360 4361 4362 4362 4360 4356 4351 4348 4343 4332 4321 4309 4297 4283 4268 4254 4243 4231 4219 4209 4199 4191 4183 4176 4169 4158 4140 4113 4095 4095 4096 4088 4071 4054 4045 4037 4029 4019 4009 3968 3941 3931 3908 3904 3895 3884 3874 3859 3836 3816 3796 3783 3766 3748 3731 3711 3696 3676 3658 3632 3610 3578 3571 3550 3519 3525 3522 3516 3500 3486 3476 3467 3458 3450 3443 3435 3430 3425 3420 3415 3411 3407 3401 3399 3398 3395 3395 3394 3395 3398 3402 3401 3402 3400 3402 3409 3410 3407 3396 3384 3371 3362 3356 3350 3341 3332 3324 3316 3307 3297 3287 3275 3263 3250 3239 3223 3209 3194 3172 3153 3132 3110 3093 3077 3056 3034 3017 3000 2988 2980 2973 2967 2962 2959 2956 2950 2940 2936 2932 2924 2916 2906 2900 2896 2891 2885 2876 2864 2856 2850 2842 2836 2831 2825 2819 2815 2814 2813 2810 2806 2799 2791 2783 2774 2766 2756 2741 2727 2717 2707 2697 2687 2681 2674
2822 2825 2837 2836 2835 2839 2831 2826 2826 2824 2826 2824 2826 2824 2823 2823 2830 2836 2839 2847 2851 2858 2868 2875 2880 2881 2885 2887 2891 2897 2903 2913 2920 2923 2928 2931 2936 2942 2946 2956 2971 2981 2986 2990 3000 3009 3015 3018 3030 3038 3056 3071 3083 3091 3105 3118 3122 3123 3130 3131 3138 3145 3155 3168 3175 3182 3190 3198 3208 3213 3227 3239 3246 3254 3265 3277 3286 3295 3303 3309 3316 3325 3333 3341 3353 3363 3374 3390 3405 3420 3435 3443 3456 3468 3479 3485 3493 3500 3513 3522 3523 3565 3586 3602 3635 3645 3656 3679 3703 3717 3723 3728 3733 3743 3759 3774 3787 3795 3808 3825 3838 3850 3863 3872 3883 3904 3921 3934 3950 3967 3977 3992 4011 4026 4040 4047 4062 4078 4094 4102 4111 4116 4121 4122 4130 4167 4183 4196 4213 4223 4234 4243 4254 4264 4273 4277 4286 4297 4306 4310 4309 4307 4306 4307 4309 4310 4310 4312 4314 4318 4323 4328 4334 4338 4346 4358 4371 4377 4376 4373 4368 4365 4366 4367 4365 4364 4365 4366 4366 4365 4364 4362 4356 4349 4340 4328 4314 4302 4294 4283 4267 4254 4244 4234 4225 4212 4199 4187 4176 4168 4164 4157 4137 4112 4093 4090 4093 4085 4066 4049 4040 4036 4030 4014 4000 3980 3962 3959 3946 3913 3887 3884 3869 3853 3827 3805 3789 3772 3752 3734 3723 3704 3685 3671 3653 3636 3611 3593 3574 3557 3538 3530 3523 3517 3506 3489 3474 3462 3453 3445 3438 3430 3421 3414 3405 3398 3393 3389 3389 3389 3390 3389 3382 3378 3381 3385 3389 3371 3371 3371 3376 3385 3388 3392 3391 3386 3377 3370 3361 3353 3344 3336 3330 3323 3315 3305 3295 3285 3275 3260 3248 3233 3220 3202 3186 3167 3148 3126 3110 3096 3077 3052 3039 3010 2998 2984 2976 2967 2959 2954 2950 2945 2938 2931 2923 2916 2911 2906 2900 2898 2894 2888 2878 2867 2858 2849 2841 2834 2829 2825 2820 2816 2815 2815 2814 2807 2799 2791 2783 2773 2763 2752 2739 2727 2718 2709 2698 2687 2678 2668
2847 2856 2865 2870 2865 2868 2850 2840 2839 2840 2841 2838 2835 2832 2830 2832 2839 2842 2848 2854 2859 2865 2873 2879 2885 2886 2888 2891 2902 2908 2917 2922 2929 2931 2933 2939 2947 2951 2954 2964 2976 2989 2994 3001 3006 3013 3018 3026 3035 3049 3062 3078 3091 3106 3115 3127 3134 3141 3144 3144 3146 3153 3158 3171 3183 3193 3199 3204 3209 3214 3219 3235 3252 3256 3266 3277 3287 3298 3307 3313 3321 3330 3336 3347 3359 3371 3385 3398 3412 3426 3438 3448 3459 3474 3481 3489 3498 3508 3519 3529 3540 3591 3592 3592 3625 3636 3648 3676 3695 3707 3714 3718 3727 3742 3758 3773 3785 3793 3803 3821 3837 3849 3858 3870 3875 3898 3916 3922 3940 3967 3985 3996 4014 4027 4038 4046 4064 4081 4092 4104 4117 4127 4132 4135 4142 4165 4179 4190 4202 4215 4229 4246 4256 4265 4271 4276 4285 4296 4305 4307 4307 4305 4306 4308 4310 4311 4312 4313 4314 4316 4320 4325 4330 4337 4344 4356 4367 4372 4371 4367 4365 4365 4364 4365 4367 4366 4366 4367 4367 4365 4362 4361 4360 4354 4346 4334 4313 4298 4291 4281 4266 4253 4243 4234 4223 4211 4195 4180 4166 4156 4153 4147 4133 4118 4101 4087 4082 4076 4059 4043 4035 4029 4026 4018 3995 3975 3963 3955 3952 3941 3905 3866 3863 3849 3830 3813 3790 3768 3750 3734 3717 3700 3683 3669 3652 3633 3616 3601 3585 3566 3542 3540 3535 3516 3499 3484 3469 3457 3445 3438 3432 3425 3418 3408 3398 3388 3381 3380 3380 3382 3384 3380 3373 3361 3351 3355 3360 3350 3348 3346 3351 3363 3369 3379 3387 3387 3380 3373 3364 3356 3350 3345 3341 3337 3331 3323 3311 3300 3287 3275 3263 3249 3236 3221 3205 3188 3166 3148 3130 3117 3103 3078 3054 3032 3018 3004 2994 2971 2963 2960 2953 2946 2940 2931 2922 2915 2910 2905 2899 2892 2888 2881 2875 2867 2856 2847 2840 2834 2828 2823 2820 2817 2814 2812 2809 2804 2799 2791 2781 2770 2760 2750 2740 2729 2716 2705 2694 2683 2669 2658
2905 2902 2912 2900 2905 2897 2879 2863 2863 2862 2861 2856 2848 2842 2842 2840 2843 2848 2853 2859 2864 2868 2873 2880 2883 2884 2885 2891 2903 2916 2920 2928 2932 2936 2937 2946 2955 2960 2964 2970 2981 2989 2997 3003 3011 3017 3023 3033 3042 3053 3066 3077 3096 3106 3117 3130 3145 3150 3152 3154 3158 3159 3162 3173 3190 3200 3206 3209 3216 3219 3227 3237 3248 3256 3267 3278 3292 3301 3309 3318 3326 3333 3342 3354 3366 3381 3392 3404 3415 3424 3439 3452 3461 3470 3480 3492 3501 3513 3528 3542 3556 3574 3586 3604 3620 3630 3640 3657 3681 3693 3705 3712 3725 3745 3759 3772 3782 3794 3800 3823 3841 3850 3859 3871 3886 3900 3908 3912 3937 3968 3982 3996 4009 4024 4037 4048 4065 4085 4094 4097 4108 4124 4133 4132 4144 4160 4175 4185 4197 4211 4225 4242 4255 4268 4271 4274 4284 4299 4306 4308 4306 4304 4304 4305 4308 4311 4311 4311 4313 4318 4324 4330 4336 4340 4346 4355 4365 4373 4375 4369 4366 4364 4364 4365 4366 4366 4366 4367 4366 4366 4364 4360 4355 4350 4340 4321 4305 4296 4287 4269 4253 4249 4246 4233 4219 4209 4197 4176 4152 4144 4147 4148 4144 4129 4106 4087 4073 4066 4058 4044 4028 4019 4013 4004 3993 3978 3964 3953 3933 3915 3903 3883 3865 3847 3829 3811 3790 3766 3747 3732 3717 3701 3680 3662 3649 3644 3621 3600 3594 3582 3557 3540 3535 3529 3509 3488 3475 3468 3459 3443 3430 3420 3413 3404 3391 3381 3376 3375 3375 3374 3373 3369 3362 3350 3340 3334 3331 3334 3330 3327 3329 3332 3340 3343 3359 3365 3368 3361 3356 3354 3351 3351 3351 3350 3348 3344 3334 3322 3310 3297 3284 3272 3257 3242 3225 3210 3188 3168 3151 3136 3122 3107 3081 3059 3046 3031 3015 3004 2996 2986 2979 2942 2934 2948 2936 2926 2919 2910 2898 2889 2885 2876 2869 2864 2856 2847 2842 2836 2830 2824 2820 2816 2811 2806 2803 2799 2793 2785 2777 2767 2755 2744 2734 2724 2710 2695 2682 2672 2659 2647
2991 2968 2946 2924 2925 2919 2903 2886 2882 2884 2880 2877 2867 2854 2853 2846 2852 2860 2863 2866 2868 2867 2875 2877 2881 2880 2887 2891 2904 2914 2922 2926 2931 2936 2938 2944 2957 2966 2974 2978 2984 2989 2994 3004 3012 3020 3030 3040 3052 3064 3073 3082 3091 3105 3112 3127 3140 3152 3157 3161 3163 3164 3167 3174 3190 3203 3212 3218 3220 3226 3235 3246 3253 3261 3270 3282 3293 3302 3313 3322 3330 3334 3346 3357 3371 3387 3397 3407 3417 3426 3439 3453 3461 3468 3478 3491 3500 3518 3541 3548 3553 3567 3570 3604 3614 3629 3639 3646 3661 3681 3702 3709 3723 3745 3764 3773 3784 3798 3803 3829 3844 3852 3860 3874 3885 3902 3906 3914 3940 3962 3980 3997 4010 4027 4039 4048 4062 4082 4093 4098 4101 4111 4128 4140 4148 4164 4174 4186 4202 4216 4224 4242 4256 4267 4274 4276 4291 4301 4310 4310 4307 4306 4305 4304 4306 4308 4311 4313 4317 4321 4328 4334 4338 4344 4351 4361 4375 4384 4376 4368 4366 4364 4363 4363 4365 4367 4366 4365 4364 4362 4362 4362 4357 4343 4329 4318 4304 4290 4278 4268 4256 4249 4246 4242 4234 4211 4191 4169 4147 4146 4146 4147 4144 4126 4107 4089 4073 4065 4056 4046 4034 4020 4010 4004 3993 3976 3961 3948 3933 3911 3896 3893 3889 3851 3833 3817 3798 3771 3750 3731 3715 3700 3683 3667 3634 3626 3626 3618 3599 3578 3557 3540 3535 3529 3514 3495 3483 3473 3465 3454 3431 3411 3405 3398 3388 3379 3373 3367 3363 3358 3352 3346 3338 3330 3328 3327 3321 3316 3312 3310 3305 3306 3304 3305 3306 3315 3331 3341 3341 3344 3347 3351 3356 3360 3363 3361 3358 3347 3333 3320 3307 3293 3277 3262 3244 3231 3216 3192 3169 3154 3138 3123 3109 3092 3079 3068 3048 3037 3027 3016 3003 2990 2984 2972 2961 2949 2937 2923 2913 2902 2891 2881 2870 2867 2861 2852 2845 2840 2834 2828 2819 2812 2807 2801 2797 2793 2787 2779 2768 2756 2744 2733 2726 2719 2705 2692 2682 2671 2655 2643
3022 3013 2980 2971 2934 2925 2914 2904 2897 2895 2900 2898 2889 2881 2871 2865 2864 2871 2874 2875 2876 2881 2882 2884 2885 2892 2896 2904 2912 2923 2926 2928 2933 2936 2935 2945 2958 2969 2976 2982 2986 2991 2997 3010 3022 3027 3034 3044 3058 3072 3082 3091 3099 3107 3113 3123 3139 3151 3159 3163 3168 3170 3174 3180 3188 3201 3216 3225 3227 3230 3242 3254 3260 3266 3274 3284 3294 3305 3316 3324 3333 3340 3348 3360 3371 3388 3399 3409 3419 3426 3437 3451 3456 3465 3480 3488 3494 3520 3536 3546 3550 3567 3573 3598 3611 3632 3640 3644 3655 3675 3693 3707 3725 3740 3762 3774 3779 3800 3810 3820 3844 3847 3863 3870 3882 3897 3908 3924 3944 3958 3978 3991 4015 4030 4044 4050 4055 4074 4090 4097 4102 4107 4119 4140 4151 4163 4178 4188 4205 4221 4239 4247 4255 4263 4270 4277 4283 4297 4306 4309 4308 4308 4306 4305 4303 4307 4312 4316 4318 4322 4326 4331 4337 4344 4353 4364 4373 4379 4374 4367 4365 4364 4361 4361 4362 4364 4364 4363 4360 4357 4354 4350 4339 4328 4317 4306 4293 4281 4275 4270 4261 4254 4249 4241 4218 4194 4178 4168 4163 4155 4148 4139 4124 4110 4101 4098 4090 4076 4064 4053 4040 4026 4018 4012 3997 3972 3951 3938 3922 3911 3902 3890 3881 3859 3841 3822 3806 3783 3764 3746 3727 3707 3690 3654 3637 3628 3618 3610 3599 3579 3558 3543 3530 3520 3508 3493 3479 3471 3460 3445 3432 3415 3398 3388 3379 3371 3363 3355 3346 3336 3332 3330 3325 3320 3313 3309 3308 3307 3303 3294 3290 3285 3283 3285 3284 3291 3302 3309 3316 3321 3330 3340 3353 3362 3359 3364 3356 3357 3345 3333 3318 3304 3290 3282 3263 3245 3238 3217 3199 3181 3168 3154 3141 3124 3107 3099 3079 3058 3050 3044 3032 3021 3009 2997 2986 2976 2957 2946 2933 2921 2909 2895 2876 2869 2862 2856 2850 2845 2839 2830 2819 2810 2803 2797 2791 2784 2777 2769 2760 2748 2738 2729 2721 2714 2706 2694 2678 2663 2647 2636
3056 3041 3028 3008 3009 2993 2969 2917 2915 2920 2922 2919 2904 2897 2892 2882 2883 2881 2883 2880 2884 2888 2891 2897 2904 2903 2908 2924 2933 2933 2929 2929 2933 2940 2944 2951 2962 2973 2983 2988 2993 2999 3010 3022 3032 3037 3045 3055 3067 3081 3092 3104 3110 3115 3120 3132 3142 3152 3161 3168 3171 3175 3179 3182 3188 3199 3215 3225 3230 3235 3245 3254 3263 3269 3278 3284 3296 3305 3315 3325 3334 3345 3353 3364 3375 3388 3399 3410 3417 3425 3437 3445 3452 3462 3478 3487 3496 3514 3529 3537 3551 3566 3576 3595 3613 3629 3638 3644 3654 3666 3684 3697 3725 3742 3756 3765 3769 3800 3817 3821 3843 3852 3871 3877 3885 3904 3917 3932 3944 3954 3960 3989 4021 4031 4042 4051 4057 4070 4090 4095 4101 4107 4122 4135 4148 4155 4173 4188 4200 4225 4235 4253 4251 4256 4265 4271 4274 4282 4297 4308 4307 4306 4305 4304 4304 4309 4315 4316 4319 4323 4328 4331 4337 4350 4360 4364 4366 4364 4362 4362 4362 4361 4359 4358 4358 4358 4358 4358 4356 4351 4345 4335 4324 4313 4306 4299 4289 4278 4268 4262 4258 4255 4247 4235 4221 4201 4183 4171 4162 4153 4145 4135 4112 4092 4097 4101 4083 4066 4055 4045 4040 4033 4022 4010 3991 3970 3950 3931 3919 3909 3904 3895 3871 3858 3841 3827 3808 3792 3776 3755 3737 3719 3696 3676 3658 3639 3626 3616 3600 3575 3553 3535 3522 3517 3508 3487 3469 3462 3453 3447 3441 3416 3392 3385 3377 3365 3352 3344 3336 3330 3323 3322 3320 3315 3311 3304 3296 3291 3286 3284 3281 3275 3271 3270 3268 3264 3270 3283 3288 3298 3306 3312 3327 3337 3347 3347 3349 3351 3340 3332 3327 3314 3306 3291 3276 3262 3245 3231 3220 3211 3200 3188 3180 3162 3146 3133 3120 3104 3087 3068 3054 3044 3035 3027 3013 3000 2985 2971 2956 2942 2927 2912 2876 2871 2866 2857 2849 2844 2840 2830 2818 2809 2801 2792 2784 2773 2763 2756 2749 2740 2732 2724 2715 2707 2698 2685 2670 2650 2632 2627
3085 3073 3052 3040 3046 3034 3013 3006 3006 2986 2996 2987 2996 2968 2943 2938 2933 2925 2930 2928 2923 2919 2918 2903 2901 2909 2921 2941 2942 2942 2935 2933 2938 2944 2953 2961 2971 2984 2990 2997 3003 3012 3026 3037 3043 3047 3053 3064 3076 3087 3101 3109 3116 3122 3130 3140 3147 3158 3167 3170 3174 3175 3177 3185 3191 3198 3211 3221 3227 3237 3245 3252 3261 3268 3273 3281 3291 3303 3314 3324 3335 3347 3358 3369 3377 3386 3396 3405 3413 3422 3435 3444 3449 3460 3473 3484 3501 3519 3528 3540 3557 3569 3578 3598 3620 3630 3636 3646 3655 3670 3682 3697 3725 3746 3754 3760 3766 3795 3812 3824 3839 3855 3868 3883 3892 3915 3929 3937 3943 3953 3964 3991 4016 4032 4039 4050 4055 4075 4087 4092 4096 4103 4120 4135 4144 4149 4168 4185 4194 4209 4222 4240 4245 4249 4259 4266 4269 4276 4286 4300 4303 4303 4304 4300 4302 4309 4317 4326 4331 4331 4332 4337 4347 4356 4362 4363 4361 4358 4354 4352 4353 4351 4347 4349 4351 4353 4353 4349 4345 4337 4330 4325 4319 4311 4303 4298 4291 4280 4269 4263 4255 4242 4230 4226 4222 4212 4203 4189 4173 4158 4145 4137 4132 4115 4101 4104 4099 4077 4066 4068 4050 4027 4015 4008 3997 3976 3958 3941 3923 3910 3909 3904 3861 3848 3832 3817 3803 3791 3772 3757 3741 3723 3702 3676 3659 3651 3639 3627 3613 3600 3568 3534 3524 3517 3507 3495 3479 3463 3450 3436 3423 3410 3392 3378 3373 3367 3355 3344 3336 3327 3319 3313 3309 3307 3306 3301 3292 3280 3271 3269 3268 3262 3259 3253 3249 3244 3242 3239 3250 3263 3279 3291 3298 3307 3310 3321 3333 3341 3338 3329 3326 3312 3312 3291 3274 3265 3248 3240 3220 3212 3213 3197 3187 3175 3163 3158 3141 3126 3113 3106 3089 3075 3067 3056 3042 3028 3013 3000 2987 2979 2963 2944 2919 2874 2867 2858 2850 2843 2838 2832 2822 2811 2798 2783 2769 2758 2753 2749 2742 2733 2724 2713 2704 2695 2685 2674 2654 2638 2633 2629
3086 3082 3083 3079 3080 3068 3054 3058 3041 3046 3050 3044 3033 3025 3022 2979 2961 2954 2954 2953 2955 2949 2928 2928 2935 2943 2953 2957 2961 2946 2951 2952 2947 2955 2960 2971 2980 2987 2996 3006 3014 3025 3035 3044 3052 3057 3064 3071 3080 3091 3103 3112 3119 3129 3139 3146 3153 3160 3164 3169 3174 3179 3186 3190 3197 3203 3210 3216 3224 3235 3246 3253 3259 3264 3272 3280 3292 3304 3315 3324 3336 3349 3359 3370 3376 3382 3389 3398 3410 3422 3430 3440 3447 3456 3466 3487 3504 3525 3535 3547 3565 3576 3585 3599 3618 3629 3639 3651 3666 3678 3690 3699 3715 3751 3762 3764 3772 3786 3810 3825 3838 3853 3862 3879 3894 3916 3931 3939 3945 3956 3975 3997 4010 4025 4037 4044 4051 4070 4081 4085 4089 4097 4114 4134 4143 4154 4166 4179 4192 4199 4208 4226 4243 4243 4252 4259 4267 4272 4281 4290 4295 4299 4300 4300 4291 4302 4318 4331 4336 4339 4337 4338 4344 4349 4352 4354 4351 4348 4341 4336 4338 4340 4338 4337 4340 4344 4342 4338 4330 4323 4319 4318 4316 4311 4302 4293 4286 4279 4270 4260 4249 4237 4227 4220 4215 4212 4208 4193 4173 4161 4152 4144 4139 4138 4136 4116 4096 4085 4076 4081 4081 4047 4016 4014 3988 3971 3951 3935 3922 3908 3893 3874 3860 3843 3825 3808 3795 3784 3770 3756 3737 3718 3698 3682 3666 3641 3638 3631 3618 3606 3592 3565 3532 3515 3505 3490 3476 3464 3448 3432 3414 3397 3386 3378 3373 3369 3358 3348 3338 3329 3319 3309 3306 3304 3301 3298 3282 3265 3254 3244 3247 3251 3248 3244 3234 3229 3228 3226 3225 3225 3225 3235 3262 3271 3282 3293 3303 3312 3319 3323 3320 3311 3298 3286 3274 3247 3235 3219 3204 3189 3211 3193 3191 3175 3169 3156 3159 3138 3132 3117 3109 3100 3078 3067 3056 3045 3036 3022 3008 3002 2979 2960 2936 2914 2869 2863 2857 2852 2843 2827 2817 2804 2789 2775 2763 2754 2751 2747 2738 2725 2713 2702 2695 2689 2675 2657 2642 2633 2627 2622
3122 3105 3103 3095 3092 3095 3086 3082 3087 3091 3093 3084 3076 3067 3064 3041 3020 2994 2983 2980 2980 2981 2976 2981 2978 2977 2980 2975 2978 2982 2982 2983 2968 2964 2968 2978 2983 2989 3004 3017 3028 3036 3043 3051 3059 3066 3071 3077 3084 3092 3103 3115 3124 3133 3140 3145 3152 3159 3168 3174 3179 3187 3194 3200 3204 3209 3211 3214 3222 3234 3245 3251 3258 3267 3277 3285 3296 3306 3313 3321 3332 3343 3353 3365 3372 3379 3384 3396 3411 3425 3433 3439 3447 3459 3474 3494 3514 3530 3542 3557 3575 3584 3591 3600 3614 3623 3638 3646 3662 3681 3689 3696 3728 3762 3767 3776 3777 3788 3807 3822 3836 3846 3854 3869 3888 3905 3926 3935 3947 3959 3986 3995 4008 4023 4035 4041 4046 4059 4070 4076 4081 4095 4120 4134 4146 4155 4165 4172 4179 4192 4202 4209 4221 4236 4242 4248 4258 4269 4274 4279 4288 4296 4298 4289 4291 4308 4321 4323 4326 4327 4327 4329 4331 4335 4337 4336 4336 4333 4330 4328 4328 4328 4325 4324 4325 4327 4325 4319 4311 4304 4301 4300 4302 4301 4289 4277 4275 4273 4263 4254 4247 4239 4232 4224 4217 4210 4202 4195 4180 4166 4159 4152 4148 4144 4136 4126 4108 4093 4086 4076 4066 4057 4040 4011 3987 3970 3948 3936 3908 3889 3877 3864 3849 3830 3814 3797 3785 3776 3766 3752 3733 3716 3705 3691 3676 3631 3630 3619 3607 3590 3573 3552 3531 3517 3503 3487 3469 3454 3441 3430 3421 3411 3397 3382 3370 3365 3359 3348 3339 3334 3324 3312 3302 3296 3293 3289 3281 3266 3252 3246 3244 3242 3241 3238 3233 3227 3224 3220 3220 3218 3217 3214 3221 3232 3252 3265 3280 3289 3296 3299 3294 3289 3279 3272 3249 3244 3222 3200 3191 3184 3177 3170 3169 3168 3158 3150 3151 3143 3133 3127 3110 3097 3084 3075 3060 3055 3040 3031 3018 3006 2984 2970 2945 2935 2920 2906 2905 2883 2855 2835 2815 2800 2787 2774 2762 2754 2747 2739 2729 2715 2702 2696 2690 2682 2671 2655 2641 2631 2624 2620
3142 3137 3131 3127 3134 3126 3107 3107 3118 3118 3121 3116 3107 3100 3088 3073 3059 3043 3032 3019 2997 3000 2992 2995 2996 2999 2999 2996 2998 3010 3003 2995 2988 2976 2981 2989 2993 2997 3004 3016 3034 3043 3048 3055 3063 3070 3078 3083 3086 3093 3104 3116 3126 3134 3141 3147 3156 3165 3172 3179 3182 3187 3195 3202 3206 3209 3211 3214 3221 3234 3243 3251 3258 3266 3275 3285 3296 3304 3311 3315 3325 3338 3350 3358 3369 3380 3387 3396 3411 3428 3437 3441 3449 3467 3484 3501 3521 3538 3552 3568 3582 3590 3594 3598 3613 3625 3638 3641 3647 3663 3694 3723 3751 3756 3763 3775 3778 3785 3801 3821 3835 3844 3849 3859 3874 3895 3913 3927 3937 3957 3980 3992 4003 4021 4033 4039 4040 4046 4058 4068 4082 4094 4115 4131 4138 4147 4157 4166 4171 4182 4199 4204 4205 4216 4229 4238 4251 4261 4266 4269 4279 4288 4295 4297 4300 4304 4307 4305 4305 4310 4314 4313 4314 4316 4318 4317 4316 4318 4319 4321 4321 4317 4312 4312 4313 4314 4314 4307 4301 4296 4292 4290 4288 4280 4274 4269 4266 4263 4258 4252 4247 4241 4233 4225 4219 4214 4208 4200 4192 4183 4175 4169 4158 4149 4142 4132 4121 4111 4098 4083 4073 4062 4041 4013 3991 3965 3942 3922 3901 3880 3865 3846 3830 3817 3798 3788 3776 3764 3753 3742 3731 3718 3706 3691 3676 3657 3624 3618 3611 3597 3565 3535 3513 3496 3487 3482 3468 3449 3434 3428 3424 3413 3398 3383 3374 3364 3354 3345 3338 3326 3312 3300 3290 3285 3280 3277 3273 3262 3251 3249 3247 3242 3236 3230 3223 3218 3214 3216 3214 3208 3205 3203 3205 3211 3215 3227 3243 3261 3268 3269 3269 3262 3254 3248 3231 3228 3205 3183 3172 3165 3161 3158 3153 3146 3136 3126 3128 3132 3130 3127 3112 3093 3085 3081 3071 3059 3039 3018 3006 2997 2985 2973 2957 2941 2928 2915 2899 2880 2856 2835 2822 2808 2789 2776 2766 2754 2742 2733 2721 2708 2699 2690 2681 2675 2667 2658 2650 2641 2632 2625
3176 3159 3159 3161 3157 3137 3133 3127 3147 3152 3156 3145 3128 3118 3107 3097 3087 3071 3062 3041 3039 3015 3006 3007 3011 3014 3012 3015 3020 3014 3010 3001 3000 3004 3011 3014 3016 3015 3024 3032 3037 3048 3054 3059 3064 3073 3083 3086 3089 3098 3110 3121 3129 3134 3142 3153 3163 3170 3176 3180 3183 3187 3196 3202 3204 3207 3212 3220 3230 3237 3244 3252 3257 3263 3270 3276 3285 3294 3303 3312 3321 3334 3346 3356 3365 3376 3386 3395 3408 3425 3438 3441 3449 3469 3489 3502 3529 3553 3558 3569 3584 3589 3596 3603 3621 3630 3646 3658 3652 3691 3727 3733 3745 3754 3762 3774 3778 3782 3798 3818 3832 3842 3845 3856 3872 3889 3908 3923 3937 3956 3978 3994 4003 4016 4029 4034 4039 4049 4058 4072 4085 4098 4105 4116 4126 4136 4145 4154 4164 4177 4196 4199 4200 4204 4214 4228 4250 4257 4260 4263 4268 4274 4281 4289 4289 4291 4291 4291 4293 4296 4297 4297 4299 4301 4303 4303 4299 4298 4300 4304 4308 4310 4305 4303 4307 4311 4310 4304 4297 4291 4285 4279 4273 4270 4268 4265 4263 4259 4254 4248 4242 4234 4227 4222 4218 4216 4214 4204 4194 4189 4183 4170 4157 4146 4136 4127 4118 4115 4113 4095 4074 4077 4053 4023 3987 3963 3938 3920 3901 3879 3861 3846 3817 3794 3779 3772 3760 3751 3744 3734 3724 3714 3703 3689 3668 3645 3634 3617 3599 3577 3548 3517 3507 3500 3488 3477 3461 3444 3436 3429 3419 3408 3389 3372 3370 3370 3361 3351 3341 3329 3307 3290 3284 3279 3278 3276 3265 3251 3243 3242 3243 3240 3234 3228 3223 3218 3214 3208 3202 3198 3190 3191 3187 3188 3188 3197 3207 3219 3229 3237 3239 3238 3232 3224 3198 3200 3178 3161 3146 3145 3146 3142 3136 3127 3114 3112 3112 3112 3111 3104 3094 3083 3074 3066 3054 3034 3017 3007 2997 2988 2976 2961 2949 2937 2925 2913 2897 2876 2855 2838 2822 2805 2790 2778 2767 2757 2743 2731 2721 2710 2700 2688 2676 2668 2661 2654 2649 2645 2638 2631
3222 3229 3199 3200 3188 3158 3162 3155 3170 3173 3163 3163 3147 3130 3126 3109 3099 3096 3090 3081 3065 3040 3046 3038 3031 3023 3025 3024 3022 3017 3007 3004 3011 3015 3019 3019 3026 3039 3053 3053 3048 3055 3061 3063 3067 3075 3086 3093 3098 3105 3117 3125 3128 3132 3142 3154 3163 3169 3175 3180 3184 3190 3198 3204 3207 3212 3220 3228 3230 3236 3244 3251 3257 3262 3265 3268 3272 3281 3291 3301 3309 3321 3333 3346 3361 3370 3378 3391 3402 3412 3440 3463 3466 3482 3496 3517 3544 3560 3563 3574 3586 3589 3594 3616 3636 3658 3688 3706 3706 3726 3733 3744 3751 3757 3764 3772 3776 3780 3788 3801 3814 3824 3833 3846 3866 3886 3899 3913 3933 3952 3971 3990 4004 4015 4026 4030 4037 4051 4063 4073 4084 4092 4097 4105 4113 4122 4129 4139 4151 4164 4177 4186 4189 4196 4205 4215 4238 4237 4244 4245 4255 4251 4252 4257 4265 4271 4274 4276 4280 4283 4284 4284 4287 4290 4289 4288 4280 4274 4279 4285 4292 4298 4291 4284 4296 4306 4299 4291 4282 4272 4270 4268 4263 4258 4261 4264 4262 4258 4249 4241 4235 4229 4223 4218 4217 4216 4210 4200 4192 4185 4176 4167 4158 4146 4135 4128 4124 4121 4120 4119 4114 4098 4062 4032 3997 3970 3938 3919 3900 3888 3864 3840 3807 3782 3767 3758 3750 3738 3729 3719 3711 3699 3685 3671 3658 3647 3635 3619 3603 3581 3556 3528 3503 3492 3487 3477 3465 3452 3440 3432 3423 3410 3392 3375 3367 3361 3354 3346 3338 3328 3300 3273 3273 3276 3276 3277 3266 3255 3244 3233 3233 3232 3227 3222 3218 3213 3208 3202 3194 3185 3183 3180 3176 3174 3174 3176 3179 3188 3197 3204 3211 3213 3210 3193 3178 3180 3160 3137 3122 3115 3112 3111 3112 3108 3100 3093 3089 3087 3085 3078 3067 3062 3060 3048 3034 3020 3008 3000 2993 2981 2969 2951 2932 2925 2918 2906 2891 2871 2850 2835 2820 2802 2787 2779 2769 2753 2740 2733 2725 2716 2701 2686 2677 2670 2662 2655 2650 2645 2640 2635
3244 3238 3233 3207 3197 3184 3179 3173 3183 3181 3169 3166 3148 3124 3124 3122 3114 3115 3110 3109 3096 3088 3075 3058 3046 3040 3038 3031 3031 3016 3004 3001 3006 3002 3014 3028 3031 3050 3055 3062 3066 3077 3073 3066 3070 3080 3088 3093 3099 3110 3119 3127 3132 3135 3139 3151 3161 3167 3172 3178 3184 3191 3199 3205 3213 3222 3227 3229 3233 3237 3243 3249 3252 3253 3256 3262 3266 3273 3283 3289 3297 3308 3320 3336 3353 3370 3377 3379 3388 3438 3487 3499 3501 3507 3517 3537 3560 3572 3582 3594 3601 3605 3608 3630 3652 3677 3682 3693 3713 3723 3732 3744 3754 3760 3764 3769 3768 3772 3778 3784 3792 3806 3819 3834 3851 3875 3892 3902 3919 3938 3955 3979 3997 4011 4021 4029 4039 4047 4058 4068 4078 4088 4093 4097 4104 4109 4114 4121 4137 4151 4160 4165 4175 4187 4193 4199 4206 4219 4221 4225 4235 4234 4248 4250 4252 4254 4257 4263 4269 4271 4272 4272 4271 4274 4277 4273 4267 4264 4265 4272 4282 4288 4289 4286 4283 4282 4280 4278 4276 4272 4268 4266 4263 4260 4259 4259 4257 4252 4247 4242 4235 4229 4223 4218 4213 4207 4206 4204 4197 4190 4177 4164 4159 4154 4146 4137 4130 4124 4125 4129 4124 4118 4077 4050 4021 3990 3952 3925 3914 3894 3858 3838 3810 3780 3762 3758 3750 3727 3713 3707 3687 3677 3664 3655 3646 3633 3623 3605 3592 3565 3535 3517 3502 3490 3479 3470 3461 3451 3441 3431 3422 3406 3390 3380 3371 3362 3352 3345 3337 3326 3316 3295 3268 3266 3270 3267 3266 3256 3241 3232 3229 3226 3222 3218 3212 3205 3199 3194 3185 3172 3176 3172 3169 3165 3165 3166 3164 3166 3169 3174 3184 3186 3178 3169 3168 3175 3149 3115 3099 3087 3080 3075 3077 3081 3077 3072 3068 3064 3054 3044 3041 3041 3036 3027 3016 3006 3000 2991 2985 2977 2962 2941 2922 2909 2899 2890 2876 2858 2844 2828 2810 2796 2785 2771 2756 2746 2737 2732 2729 2716 2701 2689 2681 2674 2667 2661 2654 2649 2644 2640
3239 3238 3225 3213 3199 3186 3185 3181 3186 3181 3169 3156 3142 3129 3127 3116 3113 3112 3108 3107 3104 3093 3085 3075 3064 3057 3045 3036 3027 3007 2996 2990 2993 2997 3003 3015 3025 3036 3049 3062 3067 3071 3081 3068 3071 3082 3087 3092 3104 3115 3128 3134 3137 3140 3146 3154 3163 3169 3174 3177 3182 3190 3198 3205 3213 3221 3226 3229 3233 3237 3241 3244 3244 3245 3249 3255 3259 3265 3274 3285 3297 3306 3314 3326 3348 3362 3369 3379 3409 3450 3480 3496 3505 3511 3523 3545 3560 3571 3583 3596 3606 3612 3617 3642 3665 3673 3685 3695 3704 3716 3727 3737 3744 3750 3756 3759 3760 3763 3770 3779 3788 3798 3813 3826 3843 3866 3884 3895 3910 3933 3948 3966 3988 4002 4014 4022 4031 4040 4049 4058 4067 4076 4086 4093 4095 4099 4106 4115 4123 4135 4144 4149 4155 4167 4178 4179 4183 4193 4199 4200 4209 4214 4223 4228 4237 4244 4250 4257 4265 4267 4265 4263 4261 4261 4261 4261 4258 4257 4257 4267 4279 4283 4286 4284 4282 4280 4277 4274 4272 4271 4270 4268 4265 4264 4263 4260 4256 4251 4246 4242 4238 4234 4229 4223 4216 4211 4206 4204 4202 4194 4182 4172 4165 4160 4153 4142 4132 4124 4122 4123 4123 4121 4096 4067 4042 4017 3986 3957 3919 3897 3879 3856 3831 3796 3774 3766 3746 3727 3707 3689 3671 3660 3649 3635 3627 3618 3604 3595 3568 3541 3522 3507 3494 3479 3472 3467 3459 3450 3437 3424 3412 3399 3388 3378 3369 3363 3356 3347 3335 3321 3307 3302 3301 3285 3266 3260 3256 3249 3239 3230 3223 3220 3217 3212 3206 3199 3191 3187 3184 3174 3161 3164 3173 3161 3159 3155 3152 3149 3149 3149 3153 3151 3143 3130 3133 3104 3082 3073 3064 3065 3058 3056 3057 3056 3053 3050 3049 3045 3035 3024 3018 3014 3010 3005 2997 2991 2988 2987 2977 2963 2944 2922 2908 2893 2881 2872 2864 2854 2842 2828 2813 2799 2790 2784 2772 2757 2751 2744 2725 2710 2699 2689 2684 2677 2672 2667 2663 2659 2654 2648
3222 3222 3216 3207 3193 3176 3169 3171 3170 3163 3157 3143 3109 3108 3102 3097 3091 3091 3095 3101 3099 3092 3088 3084 3066 3057 3050 3039 3017 2999 2989 2988 2989 2993 2998 3010 3017 3022 3029 3033 3042 3052 3059 3068 3082 3081 3086 3087 3106 3127 3137 3141 3142 3146 3153 3163 3168 3172 3176 3181 3185 3191 3200 3207 3213 3219 3224 3228 3233 3237 3238 3240 3243 3244 3247 3253 3260 3267 3277 3288 3295 3302 3307 3316 3326 3340 3357 3377 3399 3430 3455 3480 3493 3504 3520 3538 3551 3560 3573 3589 3600 3611 3617 3629 3651 3670 3685 3695 3700 3709 3721 3727 3731 3735 3742 3746 3750 3760 3767 3773 3783 3794 3806 3819 3834 3852 3874 3889 3900 3920 3946 3966 3979 3992 4003 4010 4016 4026 4040 4049 4055 4062 4071 4080 4086 4090 4097 4108 4118 4125 4132 4135 4139 4146 4156 4166 4175 4176 4188 4186 4197 4204 4203 4209 4220 4228 4236 4244 4251 4257 4254 4251 4253 4255 4255 4253 4250 4247 4252 4260 4267 4273 4275 4278 4281 4278 4273 4270 4269 4269 4268 4265 4262 4261 4261 4260 4257 4252 4246 4242 4238 4236 4235 4230 4224 4219 4216 4211 4204 4196 4187 4178 4171 4162 4152 4143 4133 4136 4140 4138 4135 4135 4108 4081 4059 4042 4022 3994 3963 3922 3899 3875 3853 3830 3802 3774 3753 3740 3711 3687 3665 3654 3637 3625 3611 3600 3587 3588 3559 3527 3513 3506 3492 3476 3464 3450 3446 3442 3429 3415 3408 3402 3392 3381 3373 3364 3358 3351 3337 3322 3312 3304 3298 3292 3273 3256 3243 3230 3225 3222 3220 3215 3210 3206 3197 3189 3183 3181 3180 3175 3168 3160 3155 3156 3148 3142 3135 3136 3130 3127 3127 3124 3114 3090 3067 3048 3036 3035 3037 3040 3040 3039 3037 3036 3034 3032 3030 3027 3024 3016 3006 3001 2998 2991 2981 2978 2978 2973 2967 2945 2923 2912 2903 2891 2878 2867 2858 2847 2836 2827 2815 2807 2801 2796 2784 2767 2756 2746 2725 2704 2697 2693 2687 2680 2677 2675 2670 2666 2660 2655
3180 3176 3169 3156 3146 3134 3126 3120 3098 3094 3069 3067 3065 3057 3056 3058 3056 3059 3064 3072 3084 3092 3086 3066 3062 3053 3046 3031 3009 3003 2983 2975 2975 2984 2986 3001 3008 3015 3019 3021 3027 3037 3043 3063 3076 3100 3098 3101 3118 3132 3141 3141 3142 3144 3154 3162 3166 3172 3179 3185 3191 3195 3200 3206 3211 3217 3221 3225 3229 3233 3239 3242 3243 3245 3250 3255 3258 3270 3281 3291 3292 3291 3297 3303 3318 3335 3353 3372 3393 3412 3435 3450 3468 3487 3506 3522 3536 3548 3559 3569 3583 3598 3610 3622 3642 3661 3676 3686 3692 3701 3711 3715 3720 3723 3726 3733 3741 3751 3763 3768 3773 3785 3800 3812 3825 3840 3860 3880 3891 3908 3932 3955 3968 3978 3988 3995 4001 4007 4020 4038 4048 4055 4062 4069 4076 4081 4087 4095 4105 4114 4120 4124 4126 4134 4143 4154 4161 4167 4169 4173 4180 4188 4192 4196 4201 4205 4209 4225 4231 4228 4238 4239 4237 4238 4239 4237 4238 4241 4242 4245 4253 4259 4263 4269 4273 4276 4273 4271 4271 4270 4269 4267 4263 4259 4257 4256 4254 4251 4247 4242 4240 4239 4232 4224 4220 4217 4213 4210 4207 4204 4198 4189 4182 4173 4158 4144 4141 4145 4150 4150 4144 4142 4125 4105 4077 4057 4044 4025 3986 3948 3927 3905 3879 3856 3824 3798 3777 3752 3720 3703 3676 3656 3634 3618 3605 3595 3582 3565 3544 3535 3525 3513 3502 3481 3457 3451 3448 3434 3418 3410 3405 3396 3387 3378 3371 3366 3358 3349 3342 3336 3326 3319 3313 3300 3277 3255 3242 3231 3223 3215 3215 3215 3207 3197 3188 3180 3174 3170 3168 3168 3164 3159 3150 3139 3134 3130 3126 3123 3123 3124 3116 3104 3093 3077 3058 3042 3034 3027 3022 3022 3019 3019 3016 3015 3016 3013 3005 3004 3006 3001 2995 2988 2980 2977 2979 2975 2973 2964 2948 2929 2911 2900 2893 2884 2875 2864 2852 2841 2831 2822 2814 2807 2801 2790 2775 2764 2756 2746 2734 2722 2709 2699 2685 2677 2675 2676 2675 2672 2668 2662
3153 3146 3136 3122 3111 3095 3089 3067 3063 3057 3054 3051 3044 3037 3027 3023 3026 3029 3033 3042 3046 3048 3046 3044 3039 3032 3023 3011 2996 2978 2964 2960 2960 2965 2974 2983 2996 3005 3012 3019 3028 3037 3050 3065 3083 3097 3109 3117 3122 3130 3136 3136 3135 3140 3150 3158 3166 3172 3178 3187 3192 3196 3199 3203 3208 3214 3219 3223 3227 3232 3239 3242 3244 3246 3251 3253 3258 3263 3277 3283 3288 3298 3301 3311 3324 3335 3353 3372 3390 3406 3424 3439 3457 3475 3495 3510 3523 3533 3540 3547 3557 3575 3593 3608 3626 3646 3660 3670 3681 3690 3699 3702 3704 3706 3716 3725 3734 3740 3748 3759 3766 3775 3787 3802 3814 3828 3844 3869 3882 3895 3916 3933 3947 3959 3970 3981 3986 3994 4005 4019 4036 4046 4052 4060 4068 4075 4080 4085 4091 4099 4105 4109 4109 4118 4129 4139 4150 4156 4158 4159 4160 4169 4176 4177 4178 4191 4192 4198 4206 4214 4206 4219 4221 4222 4218 4222 4226 4233 4239 4241 4243 4250 4257 4261 4266 4270 4271 4272 4273 4275 4276 4273 4267 4260 4255 4252 4253 4253 4253 4252 4247 4240 4233 4226 4221 4218 4213 4209 4207 4206 4203 4198 4188 4178 4167 4155 4155 4159 4155 4150 4143 4137 4139 4130 4097 4075 4062 4037 4000 3970 3947 3928 3910 3885 3844 3811 3781 3751 3734 3706 3676 3658 3643 3625 3604 3590 3574 3556 3537 3530 3519 3507 3496 3482 3471 3459 3448 3437 3425 3414 3405 3396 3388 3377 3367 3362 3360 3351 3339 3334 3331 3324 3316 3304 3290 3271 3252 3241 3231 3216 3205 3202 3200 3193 3184 3174 3166 3163 3161 3155 3151 3142 3134 3130 3124 3117 3110 3104 3101 3095 3092 3091 3085 3073 3055 3043 3034 3026 3015 3003 2999 2998 2995 2993 2988 2979 2977 2979 2981 2983 2979 2971 2963 2954 2957 2969 2957 2936 2928 2918 2909 2899 2889 2879 2871 2861 2846 2832 2824 2816 2811 2805 2799 2788 2772 2761 2752 2743 2732 2724 2719 2710 2700 2689 2684 2682 2682 2679 2672 2667
3132 3123 3107 3080 3065 3052 3044 3038 3036 3034 3029 3025 3017 3007 3002 3001 3003 3006 3011 3015 3016 3010 3004 2999 2993 2988 2974 2967 2959 2955 2951 2951 2953 2958 2962 2971 2984 2992 2999 3010 3019 3032 3048 3061 3114 3121 3124 3132 3121 3121 3123 3125 3131 3138 3145 3151 3162 3170 3176 3182 3187 3191 3196 3203 3206 3211 3217 3221 3226 3231 3239 3243 3244 3247 3251 3254 3259 3265 3271 3282 3294 3309 3318 3325 3332 3341 3350 3365 3378 3395 3417 3431 3445 3461 3481 3493 3506 3515 3519 3524 3537 3553 3577 3596 3615 3632 3645 3655 3665 3679 3687 3690 3693 3705 3714 3723 3729 3732 3737 3742 3753 3761 3770 3784 3797 3806 3817 3850 3868 3885 3898 3914 3928 3938 3950 3964 3973 3981 3995 4006 4017 4028 4037 4047 4060 4068 4074 4077 4082 4088 4095 4097 4101 4108 4113 4124 4133 4144 4146 4144 4144 4144 4151 4161 4167 4175 4181 4181 4186 4185 4190 4193 4207 4209 4206 4209 4214 4224 4234 4242 4251 4254 4254 4257 4259 4264 4267 4268 4269 4272 4277 4274 4269 4263 4257 4255 4255 4256 4258 4258 4257 4250 4240 4235 4231 4227 4223 4216 4209 4205 4200 4195 4189 4184 4176 4171 4167 4168 4172 4167 4157 4151 4148 4141 4128 4086 4065 4053 4037 3979 3954 3935 3921 3902 3871 3843 3789 3765 3737 3699 3682 3665 3645 3628 3597 3581 3567 3547 3534 3519 3505 3493 3486 3478 3467 3455 3444 3434 3423 3413 3404 3397 3389 3377 3371 3366 3359 3350 3342 3336 3331 3325 3318 3309 3294 3277 3265 3252 3233 3215 3200 3197 3195 3188 3180 3172 3165 3159 3152 3143 3133 3127 3124 3119 3112 3106 3100 3094 3087 3082 3078 3073 3067 3056 3043 3033 3024 3014 3002 2995 2989 2985 2982 2976 2970 2964 2960 2961 2963 2962 2961 2959 2951 2938 2927 2912 2903 2905 2908 2912 2904 2889 2878 2871 2864 2855 2840 2829 2824 2823 2817 2806 2798 2790 2778 2765 2754 2746 2736 2727 2720 2711 2706 2705 2698 2692 2688 2683 2678 2670
3102 3074 3059 3041 3028 3020 3014 3015 3007 2999 2999 2990 2982 2972 2967 2964 2964 2967 2974 2976 2978 2969 2957 2945 2935 2935 2933 2933 2933 2934 2934 2935 2942 2948 2956 2968 2978 2986 2997 3008 3017 3029 3045 3059 3090 3105 3111 3114 3110 3110 3112 3120 3129 3136 3140 3146 3156 3167 3174 3181 3182 3186 3192 3198 3203 3207 3211 3217 3223 3231 3239 3243 3242 3247 3248 3252 3263 3270 3276 3289 3304 3321 3329 3336 3343 3349 3359 3361 3377 3389 3408 3422 3433 3438 3455 3460 3481 3493 3500 3511 3527 3545 3566 3596 3607 3618 3631 3639 3650 3664 3674 3680 3685 3693 3710 3716 3719 3721 3725 3732 3741 3749 3751 3774 3785 3791 3790 3830 3855 3875 3893 3904 3915 3922 3935 3948 3955 3964 3983 3990 3995 4008 4020 4031 4041 4052 4058 4062 4066 4073 4081 4089 4093 4096 4100 4103 4113 4124 4129 4131 4132 4135 4141 4147 4154 4160 4163 4170 4177 4182 4189 4190 4188 4192 4197 4200 4201 4205 4210 4217 4233 4250 4254 4255 4258 4262 4262 4263 4265 4268 4269 4268 4266 4264 4264 4262 4261 4259 4255 4254 4256 4255 4249 4239 4233 4231 4228 4220 4211 4206 4201 4198 4196 4195 4196 4193 4189 4185 4178 4175 4172 4165 4157 4145 4133 4089 4071 4056 4042 4015 3961 3948 3931 3908 3875 3837 3813 3795 3769 3700 3682 3679 3648 3625 3597 3583 3565 3549 3530 3514 3505 3487 3486 3483 3471 3457 3446 3438 3427 3417 3405 3393 3387 3382 3374 3365 3360 3356 3349 3341 3334 3327 3317 3307 3294 3278 3266 3256 3239 3215 3202 3196 3186 3177 3170 3164 3155 3148 3141 3131 3125 3120 3113 3108 3104 3100 3097 3089 3079 3074 3069 3062 3052 3041 3032 3023 3014 3006 3000 2994 2987 2981 2973 2965 2956 2951 2949 2947 2944 2943 2943 2941 2937 2923 2902 2893 2894 2892 2887 2883 2880 2876 2868 2858 2849 2841 2837 2833 2830 2825 2813 2801 2794 2789 2781 2772 2761 2749 2740 2734 2726 2719 2712 2708 2706 2699 2693 2684 2677 2670
3056 3041 3021 3011 3004 2997 2997 2989 2975 2969 2956 2950 2947 2943 2933 2925 2925 2925 2925 2923 2918 2915 2915 2914 2913 2915 2917 2919 2920 2923 2925 2930 2937 2947 2958 2965 2972 2984 2992 3003 3010 3025 3043 3062 3065 3080 3081 3098 3100 3103 3106 3115 3127 3132 3137 3141 3151 3162 3173 3178 3181 3182 3187 3191 3197 3203 3210 3216 3222 3232 3241 3243 3245 3247 3249 3252 3268 3275 3289 3304 3320 3333 3339 3344 3351 3365 3368 3373 3383 3394 3406 3415 3425 3434 3438 3450 3466 3479 3486 3498 3522 3539 3554 3574 3592 3601 3616 3628 3639 3651 3660 3667 3674 3681 3689 3703 3709 3711 3714 3723 3730 3737 3753 3778 3786 3786 3803 3827 3842 3868 3884 3896 3903 3911 3930 3934 3940 3946 3965 3978 3982 3991 4004 4013 4022 4030 4038 4047 4050 4058 4065 4074 4081 4087 4090 4093 4097 4104 4113 4120 4125 4129 4132 4135 4140 4145 4150 4152 4155 4173 4168 4174 4182 4186 4191 4195 4204 4203 4202 4210 4226 4236 4246 4256 4257 4258 4260 4261 4263 4264 4264 4263 4262 4263 4264 4267 4265 4264 4261 4259 4258 4256 4249 4240 4236 4234 4230 4224 4220 4217 4217 4217 4212 4207 4205 4208 4210 4206 4196 4182 4161 4150 4146 4141 4130 4087 4067 4046 4035 4010 3984 3964 3938 3902 3870 3837 3819 3805 3773 3723 3705 3682 3661 3633 3595 3584 3565 3548 3527 3513 3499 3489 3483 3477 3465 3455 3446 3435 3424 3415 3405 3397 3391 3379 3367 3361 3357 3356 3355 3350 3340 3329 3314 3298 3289 3276 3260 3252 3247 3246 3227 3204 3191 3174 3164 3154 3145 3140 3135 3131 3124 3115 3106 3095 3091 3091 3087 3081 3076 3071 3065 3059 3049 3036 3027 3020 3012 3003 2999 2996 2990 2983 2973 2963 2953 2946 2938 2934 2931 2931 2930 2927 2920 2915 2910 2896 2891 2891 2887 2881 2874 2874 2872 2858 2837 2830 2827 2823 2822 2819 2811 2800 2789 2783 2779 2773 2766 2759 2751 2747 2748 2741 2727 2719 2713 2707 2701 2692 2681 2671
3017 3001 2986 2978 2977 2975 2972 2967 2953 2942 2934 2922 2911 2906 2903 2900 2900 2899 2901 2899 2896 2895 2895 2897 2901 2906 2910 2912 2918 2924 2927 2932 2939 2948 2957 2968 2977 2984 2991 3002 3015 3025 3044 3057 3064 3069 3080 3091 3098 3102 3105 3113 3121 3127 3133 3135 3143 3155 3165 3171 3174 3179 3182 3186 3193 3202 3212 3218 3223 3233 3240 3244 3247 3251 3255 3263 3278 3296 3306 3319 3333 3339 3347 3351 3359 3368 3373 3376 3387 3400 3408 3416 3426 3435 3442 3451 3467 3475 3480 3490 3513 3535 3544 3556 3576 3585 3597 3617 3628 3637 3643 3652 3661 3668 3682 3695 3703 3707 3717 3717 3723 3729 3760 3784 3790 3810 3823 3832 3838 3855 3874 3884 3889 3903 3928 3930 3929 3933 3944 3955 3971 3981 3990 3999 4008 4016 4022 4032 4039 4045 4053 4062 4067 4076 4083 4086 4088 4092 4097 4106 4114 4118 4121 4123 4126 4132 4136 4139 4145 4159 4152 4161 4171 4184 4191 4195 4199 4200 4203 4209 4215 4224 4234 4243 4250 4255 4258 4259 4261 4261 4261 4262 4262 4264 4267 4269 4271 4274 4279 4279 4274 4265 4257 4251 4242 4231 4229 4229 4229 4235 4233 4226 4220 4215 4210 4207 4210 4211 4196 4174 4159 4151 4141 4128 4111 4075 4062 4033 4016 4004 3994 3976 3941 3897 3862 3830 3817 3803 3785 3728 3700 3690 3674 3652 3609 3589 3567 3544 3525 3512 3497 3485 3475 3464 3464 3452 3440 3429 3420 3414 3410 3400 3389 3377 3366 3359 3355 3354 3353 3349 3344 3335 3323 3307 3291 3283 3282 3273 3259 3252 3249 3230 3197 3175 3163 3151 3139 3134 3133 3127 3118 3110 3101 3090 3080 3072 3069 3064 3058 3051 3049 3050 3043 3035 3026 3018 3009 3001 2997 2991 2986 2980 2971 2961 2952 2943 2935 2927 2923 2919 2915 2909 2905 2906 2904 2900 2899 2900 2892 2876 2869 2869 2864 2851 2837 2822 2811 2810 2808 2807 2798 2786 2776 2770 2770 2768 2761 2758 2759 2757 2751 2741 2725 2716 2715 2708 2703 2697 2687 2676
2961 2946 2945 2944 2942 2940 2938 2929 2920 2913 2908 2902 2895 2892 2889 2888 2886 2886 2886 2886 2883 2884 2889 2892 2898 2903 2910 2914 2919 2922 2927 2933 2940 2949 2962 2971 2980 2993 3002 3009 3016 3026 3043 3054 3062 3071 3081 3091 3097 3101 3102 3110 3114 3118 3124 3131 3137 3148 3156 3160 3166 3172 3179 3186 3193 3202 3211 3217 3224 3230 3238 3243 3246 3250 3262 3274 3289 3302 3318 3326 3335 3342 3349 3357 3366 3369 3372 3379 3390 3405 3415 3419 3431 3436 3443 3453 3466 3475 3483 3487 3517 3537 3545 3550 3569 3581 3590 3598 3617 3623 3631 3637 3651 3657 3680 3695 3701 3711 3722 3720 3728 3740 3772 3788 3805 3825 3834 3837 3838 3850 3866 3869 3874 3880 3930 3924 3921 3922 3923 3934 3941 3960 3972 3984 3998 4006 4014 4020 4026 4032 4043 4052 4061 4067 4071 4077 4081 4080 4084 4092 4100 4103 4106 4109 4114 4121 4127 4131 4138 4142 4151 4158 4168 4176 4185 4188 4190 4192 4193 4198 4204 4211 4222 4233 4239 4249 4260 4261 4261 4262 4263 4265 4268 4269 4270 4271 4271 4274 4279 4281 4282 4278 4273 4265 4254 4243 4231 4234 4242 4243 4240 4232 4223 4217 4213 4207 4203 4197 4190 4174 4156 4139 4121 4104 4087 4067 4041 4031 4019 4006 3994 3969 3946 3898 3845 3829 3813 3800 3780 3740 3720 3698 3682 3657 3625 3602 3573 3551 3530 3515 3503 3483 3472 3462 3451 3441 3444 3431 3421 3413 3406 3400 3390 3377 3368 3361 3357 3354 3350 3345 3341 3336 3325 3309 3298 3292 3285 3275 3261 3250 3242 3235 3214 3186 3179 3165 3149 3141 3130 3123 3114 3106 3098 3088 3077 3069 3063 3056 3046 3039 3036 3033 3031 3028 3025 3019 3010 3001 2992 2983 2974 2968 2964 2957 2947 2937 2928 2923 2918 2910 2902 2897 2889 2885 2887 2890 2893 2886 2874 2861 2851 2852 2854 2855 2844 2836 2821 2799 2792 2785 2777 2766 2757 2753 2753 2753 2750 2749 2749 2746 2739 2727 2719 2716 2711 2706 2701 2697 2690 2680
2936 2923 2922 2915 2906 2901 2898 2896 2891 2884 2882 2881 2879 2874 2873 2870 2867 2867 2871 2872 2878 2881 2889 2893 2895 2911 2905 2910 2916 2925 2929 2937 2945 2954 2965 2971 2981 2992 3001 3005 3014 3024 3039 3053 3060 3069 3078 3083 3091 3093 3096 3100 3105 3106 3112 3120 3133 3141 3147 3154 3158 3165 3176 3186 3191 3199 3206 3213 3221 3227 3233 3242 3245 3250 3263 3280 3290 3303 3315 3329 3338 3346 3356 3363 3367 3369 3376 3385 3395 3406 3415 3426 3429 3432 3440 3452 3464 3477 3489 3502 3520 3535 3547 3556 3565 3579 3589 3598 3610 3617 3624 3639 3652 3665 3676 3689 3707 3721 3719 3716 3720 3740 3768 3793 3805 3820 3834 3837 3843 3848 3857 3854 3856 3853 3880 3908 3907 3907 3908 3915 3925 3932 3951 3966 3982 3999 4004 4012 4015 4023 4032 4043 4050 4057 4061 4066 4070 4073 4072 4073 4078 4082 4087 4097 4102 4106 4113 4117 4124 4129 4139 4146 4155 4160 4161 4175 4178 4183 4186 4190 4200 4214 4222 4227 4236 4249 4257 4264 4259 4262 4263 4264 4266 4267 4269 4268 4268 4271 4276 4281 4285 4285 4285 4286 4280 4256 4248 4250 4244 4245 4235 4226 4219 4216 4216 4206 4194 4186 4173 4157 4140 4118 4086 4072 4068 4049 4025 4019 4003 3986 3971 3946 3914 3874 3852 3820 3817 3803 3784 3766 3726 3704 3683 3661 3637 3614 3588 3559 3544 3523 3505 3488 3474 3465 3454 3442 3434 3425 3418 3410 3399 3393 3386 3376 3367 3361 3356 3352 3348 3343 3337 3332 3322 3310 3301 3296 3287 3274 3261 3251 3241 3229 3219 3210 3200 3187 3177 3168 3152 3128 3109 3102 3092 3081 3075 3073 3067 3056 3044 3035 3031 3031 3028 3020 3016 3017 3007 2994 2989 2981 2974 2967 2956 2948 2938 2928 2920 2914 2908 2900 2893 2889 2890 2885 2875 2872 2873 2868 2854 2844 2840 2838 2841 2844 2848 2846 2830 2810 2788 2776 2774 2773 2769 2763 2753 2741 2737 2733 2718 2713 2726 2729 2723 2721 2714 2702 2697 2697 2692 2684
2905 2893 2887 2876 2864 2860 2857 2856 2852 2853 2852 2847 2851 2849 2857 2859 2858 2858 2860 2865 2872 2875 2890 2895 2899 2903 2905 2910 2914 2917 2926 2932 2939 2953 2965 2975 2982 2992 2998 3004 3013 3022 3032 3045 3058 3066 3072 3076 3081 3084 3086 3090 3093 3096 3099 3113 3123 3131 3141 3149 3156 3162 3172 3181 3187 3191 3200 3208 3217 3224 3231 3240 3247 3257 3270 3283 3297 3305 3317 3330 3340 3350 3358 3364 3365 3373 3378 3386 3395 3404 3412 3421 3427 3434 3439 3451 3463 3479 3495 3505 3517 3529 3546 3556 3562 3573 3583 3599 3608 3614 3622 3639 3647 3662 3680 3700 3714 3719 3716 3688 3687 3692 3742 3777 3800 3817 3821 3829 3836 3847 3847 3846 3845 3847 3867 3895 3880 3882 3892 3904 3915 3926 3935 3949 3963 3971 3987 3995 3997 4003 4021 4030 4031 4047 4054 4054 4056 4059 4065 4063 4056 4063 4071 4081 4094 4097 4096 4098 4102 4114 4131 4129 4138 4135 4141 4153 4164 4183 4189 4196 4203 4210 4209 4214 4218 4220 4227 4237 4239 4244 4254 4256 4259 4263 4267 4270 4270 4270 4275 4280 4283 4283 4283 4283 4282 4279 4275 4275 4265 4248 4231 4215 4210 4211 4210 4206 4191 4170 4154 4145 4125 4092 4070 4059 4045 4032 4014 3990 3971 3964 3945 3930 3889 3877 3848 3825 3823 3813 3794 3772 3723 3706 3685 3663 3642 3620 3598 3578 3549 3534 3517 3497 3485 3472 3460 3449 3438 3426 3414 3403 3394 3384 3377 3377 3370 3363 3358 3353 3347 3340 3335 3329 3324 3315 3301 3293 3289 3281 3266 3252 3240 3218 3200 3192 3189 3183 3175 3166 3152 3124 3102 3097 3088 3082 3076 3071 3064 3051 3039 3032 3028 3029 3025 3018 3013 3010 3001 2984 2975 2976 2974 2968 2956 2939 2927 2920 2916 2913 2907 2898 2890 2886 2882 2876 2864 2856 2852 2852 2850 2842 2840 2836 2824 2820 2819 2828 2820 2795 2781 2772 2769 2771 2775 2772 2764 2751 2744 2739 2734 2727 2714 2708 2709 2708 2704 2697 2692 2690 2691 2688
2852 2842 2837 2835 2830 2825 2822 2821 2821 2822 2825 2826 2829 2834 2850 2842 2846 2849 2865 2867 2871 2879 2885 2892 2896 2898 2904 2910 2913 2922 2932 2938 2945 2956 2966 2976 2984 2990 2997 3004 3016 3021 3028 3039 3053 3064 3068 3070 3073 3076 3078 3081 3085 3089 3094 3111 3116 3120 3133 3146 3151 3156 3164 3173 3178 3186 3195 3206 3214 3221 3230 3242 3252 3261 3280 3290 3297 3305 3320 3330 3337 3345 3353 3358 3363 3372 3381 3388 3396 3406 3411 3420 3429 3435 3446 3452 3465 3477 3491 3502 3512 3525 3542 3556 3563 3568 3583 3601 3609 3617 3628 3642 3660 3670 3686 3694 3707 3704 3689 3682 3681 3686 3700 3743 3796 3798 3818 3824 3826 3832 3832 3834 3835 3845 3851 3855 3864 3866 3868 3872 3906 3912 3926 3934 3941 3952 3961 3970 3977 4000 3994 4007 4010 4020 4040 4043 4043 4047 4051 4057 4055 4051 4056 4066 4071 4075 4080 4082 4090 4103 4107 4110 4111 4119 4121 4132 4145 4155 4167 4179 4185 4191 4190 4198 4201 4203 4203 4207 4208 4206 4211 4216 4211 4228 4241 4266 4264 4270 4278 4283 4283 4281 4281 4283 4283 4283 4286 4284 4274 4260 4232 4223 4222 4198 4197 4201 4186 4150 4129 4125 4111 4093 4070 4053 4036 4013 3992 3968 3947 3934 3931 3914 3885 3878 3851 3839 3826 3814 3793 3774 3742 3718 3695 3665 3647 3626 3602 3585 3568 3547 3529 3512 3500 3483 3473 3461 3447 3432 3413 3400 3390 3381 3377 3368 3361 3366 3359 3354 3346 3338 3332 3326 3322 3314 3306 3298 3289 3281 3271 3259 3247 3230 3213 3197 3182 3172 3166 3159 3153 3139 3113 3096 3091 3084 3074 3066 3059 3048 3035 3028 3028 3025 3020 3014 3012 3005 2990 2976 2969 2965 2962 2955 2943 2933 2924 2921 2919 2914 2907 2895 2886 2885 2881 2863 2850 2846 2843 2843 2842 2841 2837 2827 2818 2813 2808 2802 2793 2782 2773 2768 2762 2758 2756 2758 2757 2754 2753 2754 2754 2737 2718 2709 2705 2705 2701 2693 2685 2684 2684 2686
2816 2812 2810 2808 2804 2802 2803 2803 2805 2810 2816 2818 2824 2836 2835 2837 2839 2845 2853 2859 2867 2876 2885 2891 2898 2901 2905 2913 2919 2926 2936 2945 2952 2958 2967 2977 2983 2988 2994 2999 3010 3020 3027 3039 3052 3061 3066 3068 3071 3073 3074 3076 3081 3085 3094 3109 3114 3118 3129 3142 3147 3149 3154 3161 3169 3180 3189 3200 3209 3218 3229 3241 3253 3272 3289 3296 3300 3312 3325 3332 3336 3339 3348 3356 3364 3374 3383 3392 3398 3406 3412 3421 3427 3433 3440 3448 3458 3470 3484 3497 3508 3523 3540 3559 3565 3575 3586 3598 3605 3610 3631 3633 3658 3669 3686 3687 3692 3687 3680 3679 3681 3687 3698 3734 3764 3793 3799 3806 3818 3817 3818 3816 3821 3827 3834 3837 3842 3845 3856 3858 3865 3870 3890 3900 3911 3937 3944 3946 3946 3961 3977 3987 4000 4014 4023 4017 4027 4034 4035 4037 4039 4042 4046 4044 4057 4060 4067 4076 4090 4098 4101 4100 4095 4100 4111 4117 4131 4144 4150 4161 4163 4171 4174 4178 4181 4183 4187 4190 4188 4187 4182 4187 4199 4208 4203 4211 4218 4224 4239 4281 4284 4281 4279 4280 4281 4280 4277 4277 4277 4269 4256 4242 4225 4205 4185 4163 4138 4125 4122 4110 4094 4082 4068 4052 4035 4006 3972 3949 3933 3920 3910 3904 3887 3865 3866 3843 3828 3810 3787 3771 3754 3722 3698 3676 3658 3637 3616 3599 3583 3560 3546 3535 3515 3500 3487 3476 3461 3444 3427 3404 3391 3382 3373 3367 3364 3357 3353 3347 3346 3339 3332 3325 3318 3312 3305 3296 3286 3279 3275 3263 3247 3237 3224 3202 3185 3177 3172 3164 3158 3154 3145 3119 3092 3084 3069 3060 3058 3049 3038 3032 3029 3026 3018 3011 3005 2997 2985 2974 2968 2962 2956 2949 2940 2932 2923 2917 2914 2907 2893 2885 2885 2882 2875 2865 2850 2840 2840 2840 2840 2840 2837 2830 2818 2813 2806 2793 2786 2781 2774 2768 2761 2755 2751 2741 2736 2735 2735 2742 2746 2741 2726 2712 2705 2706 2704 2700 2694 2680 2674 2675
2799 2795 2792 2790 2789 2791 2791 2790 2794 2798 2804 2821 2821 2821 2828 2832 2839 2847 2853 2858 2866 2877 2885 2890 2894 2897 2900 2907 2918 2927 2934 2942 2951 2958 2965 2972 2979 2985 2988 2995 3005 3017 3028 3040 3053 3062 3067 3070 3074 3074 3074 3075 3080 3088 3097 3111 3120 3125 3132 3139 3146 3150 3152 3158 3166 3178 3190 3194 3203 3214 3226 3241 3263 3286 3301 3308 3314 3321 3331 3335 3337 3341 3346 3353 3369 3376 3382 3389 3396 3399 3406 3414 3422 3427 3430 3438 3446 3456 3469 3488 3501 3510 3526 3537 3527 3540 3574 3587 3587 3607 3614 3641 3647 3665 3672 3686 3681 3674 3669 3674 3684 3693 3710 3731 3748 3768 3782 3783 3789 3797 3795 3803 3801 3809 3809 3814 3814 3820 3826 3841 3853 3855 3869 3878 3897 3913 3929 3937 3939 3944 3963 3975 3988 3999 4004 4008 4012 4022 4024 4028 4030 4029 4039 4030 4040 4063 4066 4084 4084 4089 4090 4094 4092 4092 4103 4106 4113 4123 4131 4138 4140 4150 4153 4159 4161 4163 4165 4169 4164 4164 4165 4169 4167 4160 4159 4172 4192 4208 4212 4227 4244 4246 4259 4263 4272 4268 4264 4262 4258 4255 4247 4235 4210 4185 4171 4157 4145 4125 4089 4070 4057 4052 4050 4036 4021 3993 3966 3942 3917 3902 3898 3893 3885 3866 3861 3845 3826 3809 3792 3780 3757 3725 3697 3677 3671 3654 3635 3620 3604 3578 3567 3555 3539 3522 3507 3495 3479 3463 3447 3424 3404 3389 3378 3370 3366 3358 3354 3348 3338 3332 3325 3320 3314 3308 3302 3297 3288 3278 3275 3276 3262 3236 3219 3209 3197 3184 3175 3170 3163 3156 3145 3127 3114 3109 3099 3080 3062 3052 3044 3038 3031 3024 3017 3008 2999 2989 2981 2974 2967 2959 2952 2948 2945 2937 2928 2919 2909 2897 2884 2876 2873 2870 2867 2859 2849 2841 2841 2841 2838 2836 2835 2829 2821 2814 2805 2794 2780 2770 2771 2769 2762 2755 2749 2740 2727 2717 2716 2716 2721 2722 2714 2705 2700 2697 2698 2700 2691 2680 2670 2662
2771 2773 2767 2771 2774 2776 2778 2777 2782 2787 2793 2804 2807 2812 2823 2836 2839 2840 2847 2855 2866 2874 2879 2886 2890 2892 2897 2905 2916 2924 2933 2940 2947 2956 2961 2966 2972 2977 2985 2994 3004 3015 3025 3038 3049 3059 3066 3067 3070 3074 3074 3077 3084 3091 3100 3110 3122 3130 3136 3144 3154 3157 3158 3164 3173 3182 3187 3194 3203 3213 3234 3260 3281 3295 3313 3321 3324 3329 3333 3337 3342 3345 3351 3363 3369 3374 3383 3392 3396 3395 3395 3408 3415 3416 3419 3427 3436 3450 3461 3472 3485 3497 3504 3512 3522 3536 3567 3569 3584 3591 3607 3629 3636 3647 3651 3657 3665 3666 3669 3682 3692 3701 3716 3725 3730 3750 3759 3762 3769 3777 3783 3780 3781 3786 3787 3786 3781 3784 3799 3810 3824 3836 3850 3856 3866 3878 3890 3911 3929 3940 3953 3969 3981 3983 3989 3995 4001 4009 4011 4013 4014 4016 4017 4017 4023 4049 4060 4062 4074 4075 4077 4081 4088 4088 4091 4099 4102 4105 4111 4116 4121 4125 4133 4136 4138 4142 4141 4139 4140 4143 4133 4133 4138 4141 4135 4155 4182 4179 4192 4212 4215 4226 4232 4239 4258 4255 4251 4245 4241 4238 4229 4211 4189 4166 4149 4137 4118 4089 4068 4057 4046 4034 4022 4014 3997 3974 3945 3909 3893 3891 3886 3878 3864 3861 3850 3843 3838 3826 3814 3795 3773 3734 3705 3686 3682 3668 3654 3640 3625 3612 3593 3574 3561 3546 3531 3513 3499 3482 3468 3455 3430 3402 3386 3376 3373 3365 3356 3347 3338 3331 3325 3319 3310 3304 3300 3294 3286 3280 3270 3258 3246 3224 3220 3213 3204 3195 3185 3174 3165 3156 3142 3130 3120 3107 3097 3082 3065 3056 3048 3036 3026 3022 3016 3006 2996 2985 2977 2969 2962 2957 2951 2946 2941 2935 2927 2917 2907 2896 2887 2880 2874 2870 2864 2858 2852 2848 2844 2841 2837 2829 2822 2818 2815 2810 2803 2789 2780 2775 2770 2767 2762 2755 2744 2734 2728 2723 2716 2713 2711 2710 2703 2692 2682 2678 2679 2681 2685 2683 2680 2675
2749 2749 2750 2755 2758 2760 2768 2773 2775 2782 2787 2789 2793 2804 2816 2825 2832 2837 2840 2846 2855 2864 2872 2878 2882 2886 2894 2904 2913 2921 2928 2934 2941 2948 2955 2964 2971 2978 2987 2999 3008 3015 3026 3036 3044 3052 3059 3062 3067 3071 3073 3080 3089 3096 3101 3108 3118 3130 3140 3150 3156 3158 3162 3166 3171 3179 3189 3201 3217 3231 3248 3266 3286 3303 3315 3323 3329 3331 3334 3340 3345 3346 3348 3355 3363 3371 3382 3394 3401 3391 3389 3402 3410 3411 3413 3423 3432 3445 3460 3470 3482 3494 3506 3516 3527 3545 3555 3564 3578 3595 3611 3614 3632 3638 3631 3643 3652 3667 3675 3691 3694 3701 3712 3716 3720 3727 3733 3737 3744 3754 3760 3758 3759 3759 3758 3763 3765 3771 3780 3789 3800 3820 3843 3854 3850 3858 3874 3893 3915 3930 3940 3953 3965 3970 3977 3985 3991 3993 3999 3993 3994 3995 3999 3998 4013 4018 4033 4047 4058 4060 4068 4068 4073 4076 4082 4084 4083 4090 4089 4094 4096 4099 4099 4102 4106 4111 4112 4112 4116 4118 4114 4122 4120 4121 4135 4146 4149 4160 4174 4193 4193 4200 4210 4218 4224 4227 4226 4232 4228 4224 4220 4194 4156 4140 4134 4127 4117 4090 4064 4056 4044 4029 4006 3982 3960 3926 3900 3889 3880 3874 3869 3857 3842 3826 3832 3842 3840 3826 3818 3799 3768 3735 3708 3698 3691 3681 3673 3664 3653 3641 3626 3608 3592 3573 3556 3537 3531 3512 3491 3476 3462 3432 3413 3394 3383 3373 3365 3356 3346 3335 3328 3322 3314 3306 3299 3292 3287 3279 3269 3256 3243 3229 3218 3210 3199 3191 3189 3183 3171 3160 3146 3134 3124 3111 3095 3080 3067 3056 3048 3040 3029 3018 3013 3007 3001 2994 2979 2965 2960 2957 2953 2948 2942 2935 2926 2916 2910 2905 2901 2893 2883 2875 2867 2857 2849 2844 2840 2834 2829 2825 2820 2814 2810 2807 2802 2794 2786 2779 2772 2766 2757 2743 2732 2730 2727 2719 2713 2711 2709 2707 2703 2690 2680 2675 2671 2669 2666 2670 2673 2675
2732 2734 2738 2743 2749 2754 2759 2770 2772 2776 2780 2781 2790 2798 2807 2818 2831 2839 2844 2846 2852 2859 2865 2872 2878 2883 2890 2899 2908 2913 2919 2926 2931 2939 2949 2961 2973 2981 2989 2998 3007 3015 3026 3035 3041 3047 3052 3055 3059 3064 3073 3082 3089 3096 3102 3109 3119 3131 3143 3151 3155 3160 3162 3164 3171 3182 3195 3211 3225 3236 3253 3274 3292 3305 3315 3323 3330 3335 3337 3338 3341 3343 3344 3348 3358 3366 3374 3383 3385 3381 3379 3390 3406 3412 3420 3427 3442 3456 3464 3472 3484 3497 3508 3519 3530 3540 3552 3565 3584 3602 3615 3619 3622 3631 3633 3637 3651 3665 3676 3681 3694 3693 3693 3697 3699 3704 3714 3722 3730 3728 3741 3743 3741 3740 3739 3742 3747 3751 3764 3777 3791 3800 3809 3834 3854 3857 3863 3888 3900 3915 3932 3943 3954 3955 3954 3951 3968 3973 3978 3978 3978 3984 3993 3997 3994 4012 4021 4031 4035 4039 4046 4050 4053 4060 4065 4064 4064 4070 4073 4077 4076 4074 4074 4078 4082 4085 4087 4096 4094 4098 4096 4101 4107 4108 4115 4124 4128 4136 4147 4163 4171 4185 4193 4197 4207 4209 4208 4212 4210 4206 4196 4172 4145 4128 4116 4103 4081 4060 4049 4039 4028 4016 4001 3982 3956 3926 3893 3871 3860 3849 3839 3827 3816 3811 3823 3817 3823 3821 3810 3802 3780 3737 3714 3703 3700 3688 3682 3677 3670 3661 3639 3625 3610 3604 3585 3566 3551 3530 3513 3501 3485 3463 3448 3433 3412 3391 3382 3371 3361 3349 3337 3329 3322 3311 3304 3295 3288 3278 3267 3253 3241 3231 3217 3207 3201 3191 3179 3168 3180 3160 3144 3133 3113 3091 3081 3076 3065 3050 3043 3041 3039 3028 3021 3017 3005 2996 2979 2965 2963 2961 2959 2955 2946 2938 2929 2919 2910 2902 2895 2887 2879 2871 2866 2860 2851 2844 2840 2836 2830 2823 2818 2815 2811 2804 2798 2795 2790 2786 2775 2765 2753 2744 2735 2726 2725 2722 2715 2709 2706 2699 2693 2690 2684 2679 2674 2667 2661 2656 2657 2657
2725 2729 2739 2743 2741 2748 2754 2762 2766 2769 2774 2782 2790 2799 2809 2821 2831 2840 2844 2845 2849 2856 2862 2867 2874 2879 2886 2893 2899 2906 2911 2917 2927 2936 2948 2960 2973 2983 2992 2999 3006 3016 3025 3033 3036 3041 3046 3048 3053 3061 3070 3082 3093 3100 3103 3110 3120 3131 3141 3148 3153 3158 3162 3165 3169 3187 3207 3224 3236 3247 3262 3277 3295 3305 3315 3321 3328 3332 3334 3335 3331 3330 3332 3338 3346 3365 3366 3366 3370 3374 3384 3394 3404 3414 3428 3435 3446 3457 3468 3477 3487 3498 3509 3520 3539 3546 3555 3566 3587 3605 3610 3616 3623 3629 3640 3648 3664 3667 3671 3667 3669 3670 3671 3668 3673 3675 3686 3695 3703 3704 3705 3708 3715 3718 3719 3723 3730 3738 3746 3754 3770 3779 3787 3812 3829 3833 3856 3869 3889 3905 3914 3926 3934 3938 3935 3935 3934 3951 3954 3963 3965 3972 3979 3987 3997 4003 4014 4019 4022 4037 4039 4044 4047 4043 4046 4043 4049 4046 4049 4051 4050 4049 4054 4054 4058 4062 4069 4078 4072 4076 4069 4069 4074 4090 4094 4099 4107 4118 4130 4138 4145 4152 4159 4167 4173 4180 4185 4187 4182 4180 4174 4161 4143 4117 4090 4071 4054 4036 4018 4008 3997 3984 3973 3959 3933 3896 3873 3861 3855 3842 3826 3812 3807 3805 3798 3799 3798 3800 3797 3784 3779 3742 3724 3712 3705 3697 3688 3681 3678 3665 3643 3631 3622 3615 3600 3583 3574 3554 3539 3527 3511 3495 3472 3461 3438 3421 3406 3397 3385 3371 3358 3345 3335 3326 3316 3305 3293 3280 3269 3255 3243 3230 3220 3208 3198 3188 3178 3168 3157 3141 3138 3128 3113 3095 3081 3074 3066 3056 3048 3042 3037 3032 3026 3019 3011 2998 2986 2969 2956 2958 2956 2950 2943 2935 2929 2922 2914 2905 2895 2887 2879 2874 2868 2860 2852 2845 2840 2835 2827 2820 2815 2813 2807 2799 2790 2785 2786 2782 2768 2755 2751 2745 2737 2728 2723 2717 2713 2707 2698 2692 2690 2688 2685 2680 2675 2669 2661 2653 2647 2642
2723 2723 2723 2728 2735 2741 2746 2753 2757 2763 2770 2777 2785 2797 2809 2819 2826 2834 2841 2844 2846 2852 2856 2861 2867 2873 2880 2889 2895 2900 2906 2914 2925 2935 2945 2958 2971 2983 2994 3002 3008 3013 3021 3027 3030 3035 3041 3047 3053 3062 3071 3081 3093 3101 3106 3111 3117 3126 3135 3143 3149 3156 3165 3168 3175 3195 3222 3240 3255 3272 3281 3287 3288 3295 3300 3310 3322 3330 3332 3333 3340 3331 3322 3325 3326 3328 3324 3332 3344 3356 3367 3380 3395 3408 3425 3431 3440 3453 3465 3477 3489 3490 3499 3512 3536 3555 3565 3573 3588 3609 3610 3613 3619 3628 3647 3649 3655 3664 3658 3648 3640 3635 3631 3631 3632 3640 3651 3664 3672 3680 3691 3693 3696 3698 3702 3708 3713 3724 3734 3738 3750 3762 3768 3783 3792 3802 3825 3848 3875 3896 3907 3913 3916 3921 3922 3924 3923 3928 3926 3927 3946 3950 3964 3972 3984 3996 4003 4012 4016 4020 4013 4017 4031 4027 4025 4027 4028 4026 4027 4024 4026 4027 4031 4033 4033 4038 4044 4049 4052 4050 4055 4056 4057 4052 4062 4075 4089 4105 4113 4118 4123 4128 4131 4134 4135 4136 4142 4167 4171 4172 4161 4148 4131 4098 4070 4055 4039 4018 3999 3979 3964 3951 3938 3925 3905 3880 3859 3846 3834 3824 3814 3803 3795 3788 3770 3776 3781 3778 3779 3773 3757 3747 3729 3706 3699 3694 3682 3677 3670 3641 3630 3627 3620 3608 3598 3594 3585 3576 3564 3552 3539 3528 3518 3496 3470 3452 3443 3429 3419 3402 3390 3373 3361 3349 3335 3319 3307 3294 3278 3263 3250 3239 3227 3211 3200 3187 3172 3164 3150 3141 3125 3106 3105 3092 3077 3066 3058 3052 3045 3033 3025 3024 3021 3013 3004 2998 2988 2973 2960 2956 2953 2942 2933 2931 2928 2924 2918 2909 2900 2892 2883 2875 2868 2862 2855 2846 2838 2835 2831 2823 2815 2813 2808 2796 2785 2783 2779 2768 2758 2750 2744 2740 2734 2725 2717 2711 2706 2701 2698 2694 2690 2688 2682 2675 2670 2666 2663 2656 2651 2644
2713 2713 2714 2719 2726 2730 2736 2742 2749 2755 2764 2770 2779 2792 2805 2813 2822 2831 2837 2842 2845 2850 2854 2858 2862 2867 2873 2881 2889 2897 2904 2911 2923 2932 2941 2950 2963 2979 2991 3000 3005 3009 3014 3020 3028 3037 3044 3050 3056 3063 3071 3080 3092 3100 3105 3110 3116 3124 3132 3141 3151 3159 3164 3173 3191 3215 3244 3271 3282 3287 3294 3300 3302 3302 3298 3309 3306 3305 3325 3324 3321 3312 3303 3299 3299 3301 3308 3315 3322 3339 3355 3373 3391 3408 3410 3420 3432 3442 3460 3479 3484 3494 3497 3501 3517 3550 3558 3573 3588 3605 3608 3611 3619 3627 3635 3653 3649 3641 3631 3614 3602 3599 3601 3600 3601 3611 3614 3621 3632 3640 3646 3660 3669 3675 3684 3688 3698 3704 3714 3726 3740 3749 3755 3762 3758 3760 3797 3821 3857 3869 3890 3898 3900 3903 3905 3910 3913 3913 3907 3917 3926 3940 3946 3961 3971 3979 3992 3998 4005 4005 4007 4006 4013 4022 4023 4007 4008 4008 4013 4013 4010 4009 4010 4015 4017 4018 4022 4026 4032 4034 4039 4037 4040 4039 4048 4061 4065 4072 4080 4087 4087 4088 4091 4090 4087 4091 4098 4116 4136 4137 4130 4115 4097 4075 4053 4036 4019 4000 3978 3961 3948 3933 3919 3909 3894 3869 3847 3830 3819 3807 3790 3764 3755 3760 3747 3751 3755 3759 3754 3754 3744 3734 3711 3695 3682 3659 3645 3614 3610 3603 3598 3598 3602 3597 3593 3588 3588 3581 3572 3566 3558 3530 3529 3517 3504 3492 3469 3456 3443 3432 3425 3409 3391 3374 3358 3344 3330 3317 3300 3283 3267 3252 3241 3223 3211 3196 3173 3161 3146 3133 3119 3102 3083 3063 3059 3054 3048 3043 3035 3025 3013 3004 2999 2994 2987 2981 2972 2961 2953 2948 2945 2938 2933 2930 2926 2920 2913 2908 2902 2893 2879 2868 2861 2854 2847 2841 2837 2834 2830 2821 2813 2806 2799 2789 2778 2773 2769 2762 2754 2747 2741 2736 2729 2721 2713 2709 2705 2702 2700 2696 2693 2685 2677 2673 2668 2662 2658 2655 2651 2646
2693 2696 2700 2707 2714 2719 2724 2730 2734 2742 2753 2763 2776 2789 2802 2816 2822 2827 2834 2838 2842 2846 2850 2853 2856 2859 2867 2874 2884 2895 2906 2915 2924 2933 2941 2950 2959 2970 2983 2989 2996 3002 3009 3015 3023 3037 3046 3052 3059 3066 3067 3075 3086 3095 3102 3110 3115 3121 3129 3148 3152 3159 3168 3184 3202 3229 3263 3273 3278 3287 3290 3286 3295 3297 3277 3269 3273 3280 3281 3274 3279 3277 3278 3283 3286 3291 3298 3303 3311 3321 3337 3352 3366 3408 3414 3418 3419 3429 3445 3468 3491 3486 3492 3495 3506 3528 3552 3568 3580 3597 3600 3609 3613 3625 3623 3631 3625 3616 3600 3588 3583 3579 3579 3581 3583 3583 3585 3586 3585 3585 3589 3602 3615 3636 3653 3665 3673 3668 3685 3698 3716 3732 3747 3744 3749 3753 3765 3802 3832 3854 3865 3868 3874 3882 3887 3890 3892 3892 3898 3914 3908 3924 3939 3944 3952 3969 3980 3982 3986 3987 3993 3993 3995 4000 4001 3997 3993 3990 3990 3993 3993 3995 3992 3998 3999 3999 4001 4004 4012 4019 4019 4022 4029 4030 4038 4042 4044 4047 4047 4047 4049 4053 4061 4064 4063 4067 4069 4080 4103 4106 4105 4092 4065 4037 4028 4017 4005 3988 3965 3947 3935 3922 3908 3895 3872 3849 3831 3815 3803 3788 3764 3745 3740 3734 3725 3721 3726 3727 3724 3720 3713 3712 3700 3676 3658 3634 3618 3603 3586 3561 3558 3561 3577 3573 3578 3578 3574 3574 3569 3563 3538 3528 3522 3511 3514 3498 3489 3464 3457 3448 3442 3438 3430 3414 3388 3366 3352 3338 3326 3312 3294 3275 3262 3247 3234 3217 3195 3174 3154 3141 3118 3097 3077 3061 3049 3045 3044 3040 3032 3017 3003 2996 2990 2982 2972 2964 2959 2949 2943 2942 2940 2932 2928 2926 2915 2904 2900 2896 2891 2881 2873 2865 2856 2848 2840 2834 2832 2829 2822 2815 2807 2798 2784 2771 2769 2766 2758 2749 2744 2740 2733 2727 2721 2716 2711 2707 2706 2704 2700 2695 2691 2687 2680 2673 2666 2661 2655 2648 2642 2637
2687 2689 2691 2691 2698 2704 2711 2718 2724 2734 2746 2759 2772 2786 2801 2814 2824 2829 2832 2836 2838 2842 2845 2848 2851 2855 2859 2866 2877 2890 2903 2913 2924 2933 2943 2950 2954 2961 2970 2975 2983 2994 3007 3015 3022 3035 3045 3053 3062 3068 3068 3074 3083 3090 3095 3101 3108 3121 3144 3161 3171 3182 3194 3212 3233 3250 3263 3269 3269 3277 3277 3288 3279 3273 3255 3243 3248 3250 3251 3258 3259 3264 3267 3268 3273 3279 3283 3289 3293 3302 3317 3329 3345 3362 3401 3403 3411 3422 3440 3460 3475 3481 3495 3491 3494 3507 3534 3548 3567 3584 3601 3604 3603 3608 3604 3599 3598 3589 3572 3565 3560 3558 3556 3555 3557 3558 3558 3557 3556 3553 3553 3555 3566 3591 3616 3628 3649 3661 3670 3675 3692 3704 3716 3732 3740 3759 3771 3795 3817 3829 3847 3851 3862 3867 3869 3874 3879 3880 3886 3892 3897 3913 3927 3936 3944 3952 3961 3959 3964 3972 3978 3977 3984 3989 3988 3983 3975 3970 3973 3975 3977 3975 3979 3974 3977 3983 3985 3983 3993 3997 4000 4010 4014 4021 4024 4030 4033 4029 4026 4023 4025 4027 4028 4034 4035 4033 4042 4043 4081 4073 4073 4063 4060 4034 4015 4011 4004 3983 3954 3935 3919 3901 3890 3890 3869 3827 3806 3797 3787 3769 3746 3727 3716 3711 3707 3703 3703 3699 3696 3693 3687 3684 3669 3652 3639 3613 3590 3583 3566 3556 3539 3535 3543 3543 3545 3541 3531 3528 3524 3522 3519 3519 3505 3510 3508 3496 3492 3475 3466 3458 3456 3454 3450 3424 3410 3406 3387 3372 3356 3342 3328 3308 3286 3273 3260 3245 3224 3198 3171 3144 3122 3093 3071 3055 3043 3032 3044 3032 3020 3006 2993 2990 2985 2977 2968 2956 2948 2940 2936 2929 2924 2923 2922 2912 2900 2893 2887 2883 2877 2871 2864 2859 2852 2843 2835 2828 2821 2819 2816 2809 2800 2790 2781 2772 2763 2758 2752 2744 2739 2734 2729 2723 2717 2712 2707 2703 2700 2696 2694 2691 2687 2682 2676 2670 2663 2658 2650 2643 2639 2634
2684 2688 2687 2687 2688 2693 2702 2712 2723 2729 2743 2755 2767 2783 2796 2809 2818 2824 2829 2832 2834 2835 2837 2841 2845 2851 2855 2861 2874 2887 2899 2908 2918 2928 2935 2940 2944 2947 2954 2966 2976 2989 3002 3009 3018 3031 3043 3052 3059 3063 3065 3070 3079 3086 3091 3097 3112 3131 3144 3159 3172 3185 3207 3231 3252 3262 3263 3267 3259 3233 3236 3273 3265 3260 3243 3240 3234 3234 3233 3238 3243 3246 3246 3248 3251 3258 3265 3272 3283 3293 3302 3313 3327 3342 3356 3392 3405 3413 3430 3454 3459 3463 3480 3481 3497 3508 3525 3539 3552 3567 3573 3576 3579 3581 3580 3574 3568 3555 3545 3539 3533 3528 3526 3527 3529 3528 3525 3520 3516 3515 3511 3516 3529 3550 3569 3588 3618 3636 3655 3665 3672 3685 3698 3709 3729 3754 3771 3789 3790 3812 3815 3823 3833 3843 3849 3859 3861 3869 3877 3887 3895 3902 3915 3929 3935 3942 3942 3944 3948 3957 3960 3967 3969 3972 3970 3965 3961 3958 3959 3960 3956 3953 3956 3954 3956 3959 3962 3968 3972 3974 3980 3980 3989 3990 3996 4002 4007 4010 4006 4002 4001 4000 3997 4000 4001 4004 4011 4022 4048 4054 4052 4042 4032 4028 4012 4005 4000 3977 3939 3917 3902 3899 3888 3866 3847 3827 3811 3798 3783 3756 3732 3714 3699 3692 3687 3685 3674 3673 3666 3663 3665 3656 3652 3624 3612 3590 3575 3560 3541 3530 3528 3505 3504 3502 3507 3500 3496 3490 3491 3487 3481 3482 3484 3483 3495 3491 3481 3475 3474 3464 3465 3464 3461 3450 3423 3417 3405 3396 3388 3375 3343 3335 3300 3292 3284 3264 3259 3225 3195 3150 3122 3086 3070 3054 3033 3027 3019 3013 3009 2993 2988 2983 2976 2968 2955 2946 2939 2932 2926 2920 2916 2915 2918 2915 2903 2892 2884 2877 2869 2862 2855 2846 2835 2830 2824 2819 2814 2810 2806 2797 2789 2787 2784 2774 2765 2758 2751 2742 2734 2729 2724 2718 2712 2708 2703 2696 2690 2686 2681 2677 2675 2672 2670 2664 2659 2652 2645 2639 2634 2630
