ncols        186
nrows        122
xllcorner    -123.772083333
yllcorner    168.04125
cellsize 30
161 167 178 177 181 193 214 229 237 241 246 250 254 258 261 262 263 264 265 268 272 279 286 291 295 300 304 305 309 310 312 312 311 310 311 312 313 315 316 318 322 325 329 331 334 338 342 345 347 349 350 350 352 354 356 357 358 359 360 360 360 359 360 360 361 361 361 362 366 374 384 393 401 414 426 443 464 482 489 505 512 515 516 515 516 515 510 507 505 503 499 494 487 479 476 474 474 473 471 467 468 468 471 475 477 477 478 477 474 468 463 456 449 438 427 417 408 401 393 386 381 370 361 359 355 348 339 331 321 312 304 298 295 293 290 284 278 272 267 262 259 258 257 256 252 245 242 239 237 236 234 229 225 223 224 223 222 225 230 237 244 252 257 259 256 252 247 241 236 233 231 228 223 214 204 196 192 170 170 170 170 170 170 170 170 170
167 182 193 201 212 219 226 235 237 241 245 250 254 257 260 262 263 266 270 275 283 291 298 304 309 311 314 315 316 317 319 321 322 323 324 325 325 325 326 328 330 333 335 338 342 345 348 351 353 354 355 355 357 359 360 361 360 361 361 361 362 364 364 364 363 363 363 365 369 376 388 400 411 421 435 451 470 484 499 510 518 522 525 526 526 525 520 518 516 514 512 506 501 495 489 488 488 489 490 490 490 489 491 492 490 490 489 489 487 483 477 472 465 454 444 437 430 422 417 408 400 397 387 382 375 363 353 345 335 328 323 318 310 304 300 296 292 287 280 275 271 268 265 263 262 258 255 253 252 248 245 241 238 237 236 238 240 243 249 258 266 272 273 270 267 262 258 256 252 250 248 243 239 232 225 217 208 203 196 190 170 170 170 170 170 170
185 199 210 217 226 237 241 240 240 244 249 254 258 261 263 266 270 275 281 288 294 301 309 315 318 319 319 319 320 322 325 328 330 332 333 336 338 339 339 339 340 341 342 343 346 350 351 353 355 357 358 358 360 363 363 362 361 361 362 364 365 368 369 368 367 366 367 368 372 381 394 406 416 429 440 453 473 497 512 518 524 528 532 535 536 535 536 532 530 525 519 513 507 503 500 500 501 503 506 508 509 510 514 513 512 508 504 501 499 497 494 489 482 475 464 456 450 441 434 426 419 412 406 396 384 374 370 363 353 346 340 335 331 324 318 314 307 300 294 289 284 280 277 274 271 269 266 264 262 260 257 252 252 253 256 257 264 268 274 280 285 285 284 281 277 277 274 272 270 268 265 262 261 257 248 237 226 218 208 199 195 192 170 170 170 170
204 215 225 234 243 248 249 248 250 253 259 264 269 272 275 279 285 291 297 301 306 313 319 323 324 325 327 327 328 330 333 336 337 338 341 344 347 348 347 347 348 347 347 348 352 355 358 359 360 358 360 362 365 366 365 364 363 365 367 369 371 372 373 372 371 370 369 371 377 388 398 407 419 431 443 459 478 505 520 525 531 537 542 545 545 545 542 539 533 528 522 517 513 510 511 512 515 521 523 525 527 528 528 528 526 524 521 518 515 512 510 505 501 497 491 483 474 459 455 443 435 428 426 417 409 399 393 388 377 365 361 356 349 343 339 332 321 309 302 298 295 292 289 286 284 281 279 277 274 273 270 268 270 274 278 283 287 292 295 300 298 300 299 297 294 293 293 295 294 291 288 283 280 275 267 257 247 235 225 214 202 195 196 170 170 170
212 223 234 244 251 256 256 257 260 264 271 277 282 285 287 293 301 306 311 316 320 325 328 330 332 333 335 337 338 339 341 343 345 345 347 349 351 353 354 354 354 354 354 355 358 361 366 367 367 366 365 367 370 372 371 370 370 371 374 377 376 375 374 373 373 373 372 375 382 392 403 417 431 442 455 467 487 511 525 535 541 547 552 556 555 554 549 544 542 534 528 525 524 524 524 526 530 534 537 538 538 538 539 539 538 537 537 537 535 532 527 522 518 514 509 502 494 484 473 465 458 452 450 443 434 426 417 408 401 393 382 374 367 362 357 349 336 323 315 309 307 306 302 298 294 291 289 288 289 289 289 290 294 300 304 308 309 311 314 316 316 316 318 316 315 310 312 311 312 313 307 301 296 291 282 273 265 254 245 235 223 211 203 201 190 170
225 233 241 251 259 263 265 268 272 277 284 292 297 302 306 311 317 322 326 331 331 333 335 337 338 340 341 343 344 346 349 351 352 353 353 354 356 359 360 362 364 366 367 368 368 371 375 377 377 375 375 375 378 379 379 377 376 377 379 379 379 377 376 376 377 377 376 376 382 393 406 421 438 453 465 475 490 511 530 539 546 552 557 559 562 559 558 557 555 550 541 540 538 540 539 541 542 544 546 547 548 549 550 553 554 554 554 551 551 550 545 538 533 528 522 517 509 500 493 487 479 474 468 463 455 443 435 427 420 411 400 387 379 373 369 359 349 338 328 322 318 317 316 311 305 301 302 303 305 310 310 311 315 319 323 325 325 326 330 335 336 338 339 339 339 339 335 331 328 324 320 314 308 301 294 288 279 271 263 252 240 227 212 200 191 188
239 246 253 259 266 269 273 278 284 291 300 307 312 318 324 330 334 337 338 338 338 339 341 342 344 346 347 349 350 353 355 357 358 358 358 359 361 364 367 369 372 375 376 376 377 379 383 385 385 383 381 381 382 383 383 382 381 381 381 382 380 379 378 379 381 382 381 382 385 395 409 423 441 456 470 480 494 515 531 538 546 554 560 564 566 567 567 568 567 567 564 562 558 557 556 555 553 555 555 556 558 560 565 568 570 569 569 567 565 561 556 549 542 537 530 524 519 514 510 505 500 493 487 479 470 458 451 446 439 430 414 399 391 384 378 372 365 357 348 339 332 330 328 326 321 322 323 324 325 325 326 329 333 339 343 344 347 350 355 358 362 366 364 364 361 361 359 352 346 339 336 330 323 315 308 302 293 285 277 268 256 244 229 215 203 193
253 257 263 270 275 279 284 288 295 303 312 319 326 332 334 338 340 342 342 343 344 345 345 348 351 354 357 358 358 359 361 364 365 365 365 365 366 367 369 371 374 376 377 378 381 385 388 390 389 387 385 384 384 384 385 384 385 384 383 383 382 382 382 383 385 387 388 388 391 398 412 423 436 453 468 484 501 521 536 546 555 560 565 568 571 575 576 577 577 577 578 576 572 569 567 565 565 565 566 568 571 577 580 580 579 579 578 577 573 569 562 555 551 545 540 535 531 527 522 519 513 508 502 494 486 478 470 461 452 443 430 418 409 401 391 378 372 367 359 350 347 345 342 342 340 341 340 342 341 341 343 348 354 358 362 368 375 381 387 391 391 387 386 383 380 377 374 371 362 353 347 343 335 326 321 317 309 299 291 283 276 266 253 243 229 214
266 271 278 285 290 294 297 300 305 312 319 328 334 338 341 342 343 345 347 348 348 349 352 355 360 364 365 366 365 366 367 369 370 371 371 370 370 370 371 372 373 375 378 381 386 390 392 394 393 392 390 390 389 389 389 388 387 387 386 386 386 386 387 388 390 391 391 391 395 406 415 422 433 451 468 488 508 527 542 551 557 562 566 571 577 580 582 584 586 587 586 583 581 579 579 579 580 580 584 584 588 589 592 591 590 589 589 586 582 577 575 570 566 561 556 550 545 539 534 528 524 519 514 507 498 490 486 478 469 459 449 441 433 421 404 388 380 375 368 364 362 362 363 359 357 357 357 359 363 367 370 371 375 378 384 390 395 402 411 414 412 407 402 398 394 390 387 381 375 368 361 354 346 340 335 329 326 317 310 301 289 279 268 255 245 234
279 285 290 297 302 306 310 315 319 322 327 333 340 343 345 346 347 349 351 351 353 355 357 362 366 368 369 369 370 370 372 373 374 375 375 374 374 374 375 375 377 379 382 386 391 394 396 397 397 397 395 394 394 392 391 390 390 390 390 392 392 394 395 397 398 397 397 397 400 408 417 422 436 456 472 492 509 527 542 552 558 563 571 578 582 586 587 588 590 592 593 592 591 591 593 593 594 595 598 600 600 601 602 601 600 599 596 593 592 590 589 586 583 578 574 566 558 550 543 538 533 529 525 520 512 505 499 494 486 477 470 459 449 437 422 406 393 385 381 377 375 373 372 372 370 371 373 382 390 392 395 399 400 401 403 408 415 420 423 425 423 420 416 411 409 405 400 393 384 378 374 369 360 352 344 340 338 334 328 318 309 293 278 268 258 248
294 297 301 307 312 318 324 329 331 332 335 338 342 345 346 348 352 354 356 357 358 360 361 364 367 369 370 371 373 374 375 376 377 378 378 378 377 378 379 381 382 384 387 390 393 395 396 398 399 399 399 398 395 393 392 391 391 392 394 397 399 400 402 404 406 406 406 405 407 413 420 426 440 463 478 495 508 522 540 553 561 570 577 582 585 586 588 591 593 596 599 603 607 609 609 609 608 608 610 611 612 611 609 608 605 603 601 600 600 600 598 594 591 587 580 575 569 562 554 549 543 537 531 526 520 513 508 505 499 491 483 471 460 449 436 420 409 403 398 395 390 387 383 380 382 387 395 404 408 413 417 419 419 421 426 431 436 438 440 438 434 430 428 425 421 418 412 403 393 387 386 383 374 366 362 359 354 348 338 328 318 307 292 279 265 255
306 309 314 319 324 331 335 337 337 337 339 342 345 348 351 354 357 359 359 360 361 363 364 366 367 368 370 372 374 376 377 378 380 381 381 381 381 383 384 385 387 387 389 391 393 397 399 399 400 401 400 399 397 394 393 392 393 395 397 400 402 403 405 407 410 412 412 413 415 418 424 431 443 465 478 496 508 525 544 556 564 569 577 583 586 589 591 596 600 604 609 614 618 621 623 624 624 626 627 627 626 623 619 616 613 609 607 605 605 604 601 599 594 591 583 578 573 567 561 554 549 541 535 531 525 521 518 514 509 501 488 477 467 456 444 437 431 429 427 418 409 405 403 403 407 415 421 424 427 431 436 442 443 448 452 453 455 456 456 452 449 447 444 439 435 430 424 415 406 402 398 393 388 384 380 375 368 361 350 339 327 316 303 289 279 267
317 321 326 330 334 340 344 346 345 347 348 351 353 355 359 361 362 362 362 364 366 367 368 369 371 372 374 375 377 378 379 380 382 384 384 384 385 387 388 389 390 391 392 395 399 401 403 403 402 400 399 399 397 396 395 395 396 398 400 401 403 404 405 408 411 414 417 420 423 427 431 436 446 463 476 495 511 531 549 560 566 576 584 589 591 594 600 606 612 618 620 623 625 626 629 632 635 639 640 639 637 633 628 625 620 616 612 610 608 606 605 601 597 591 586 581 577 572 566 562 556 550 542 540 539 535 531 525 517 507 498 488 477 467 459 451 448 444 439 434 428 425 423 428 434 439 443 443 444 449 458 464 468 472 473 475 474 475 474 468 463 459 456 450 444 439 433 427 420 415 410 404 399 396 393 385 376 366 356 346 336 326 313 302 293 282
330 333 336 339 344 349 352 354 357 360 363 365 365 368 369 370 370 371 370 372 375 377 378 379 381 380 380 380 381 381 383 385 387 389 390 389 390 392 393 393 394 395 397 400 403 406 407 406 404 402 400 398 398 399 399 400 401 401 401 402 404 406 408 412 415 418 421 425 431 434 437 443 454 468 483 497 516 538 555 567 579 588 592 595 599 600 608 616 620 624 627 630 632 635 638 645 648 650 650 647 643 637 633 628 623 618 614 612 610 608 606 603 600 595 592 590 587 586 584 579 573 569 565 559 558 555 548 539 531 520 508 499 490 480 470 463 459 456 452 449 449 449 451 455 458 462 463 466 471 475 479 485 490 492 493 493 494 490 485 480 472 469 465 459 453 448 444 440 434 430 422 412 407 405 401 394 384 376 367 357 349 341 333 322 309 299
336 339 344 347 351 356 358 361 364 368 372 375 376 376 377 379 380 380 381 383 386 389 389 391 391 390 389 388 388 389 391 393 397 398 397 397 397 399 400 401 401 401 403 405 407 409 410 408 407 405 402 403 404 405 406 407 407 408 406 405 408 410 415 419 421 422 424 428 435 441 444 450 459 470 484 502 523 545 559 572 584 594 600 604 605 607 613 618 623 629 635 639 642 648 655 659 660 658 656 651 647 642 637 632 626 620 616 612 610 610 609 607 605 602 601 601 600 599 598 596 588 584 581 579 574 568 559 548 537 525 515 505 495 487 481 476 471 468 469 469 472 473 475 478 481 483 488 493 497 500 502 505 509 511 510 508 507 504 499 492 486 481 477 471 464 462 459 456 453 447 437 427 420 417 413 408 401 393 385 377 370 363 354 340 323 311
338 343 349 353 357 359 361 364 367 372 376 379 380 382 384 386 387 388 390 392 394 395 396 396 397 396 395 397 398 399 401 403 402 402 403 404 405 407 408 409 410 411 412 413 415 416 415 414 412 410 408 410 413 414 416 417 421 420 419 418 421 424 428 430 431 432 434 439 443 448 453 457 461 472 484 502 523 544 559 571 586 597 604 607 609 612 617 622 627 635 643 649 654 661 666 668 669 665 661 656 651 648 643 638 633 628 622 619 618 618 621 622 619 616 616 614 611 610 607 604 600 596 593 589 586 579 570 556 542 529 519 510 505 500 498 495 490 486 486 487 490 494 497 497 500 506 510 517 522 524 526 525 524 523 522 520 517 514 511 506 501 497 492 487 482 475 471 470 467 461 454 445 438 433 431 429 423 412 403 395 388 381 372 354 335 317
343 348 354 359 361 363 365 368 371 375 379 382 386 390 393 395 397 399 400 402 404 403 402 405 406 405 407 408 409 409 410 411 410 409 410 412 413 414 416 418 420 421 423 425 426 427 425 423 421 420 420 421 423 425 428 431 433 434 435 435 438 439 441 441 442 444 448 451 453 456 458 461 470 480 492 505 522 540 555 571 586 597 603 607 610 615 621 628 636 644 654 662 669 675 675 676 674 672 667 663 659 656 652 648 644 641 638 637 636 636 636 637 637 635 630 626 622 618 616 612 609 605 602 599 594 586 575 564 553 542 532 525 521 518 515 516 514 511 507 508 511 517 515 514 518 523 530 534 538 541 541 539 539 537 535 533 531 529 527 523 518 512 507 502 495 489 483 478 474 471 468 462 456 450 447 446 438 427 415 401 391 380 365 349 329 312
355 358 362 366 368 370 371 372 375 377 382 387 394 400 403 404 407 409 411 412 413 412 412 413 415 416 418 423 424 423 422 420 418 416 416 417 418 421 424 427 430 431 431 433 435 435 433 432 431 430 430 430 432 435 438 441 443 443 443 445 446 447 447 448 450 453 456 459 460 460 463 467 475 487 499 512 527 542 559 577 589 597 601 606 611 618 627 637 647 655 663 671 678 679 680 679 677 674 672 669 666 665 663 664 665 663 661 661 659 656 655 653 653 652 647 641 638 633 629 625 621 617 612 609 603 596 590 581 571 561 554 547 542 540 537 536 533 532 532 536 543 541 540 538 540 544 549 551 552 552 553 553 554 554 552 550 548 546 541 535 529 524 519 514 507 499 493 488 483 478 474 471 467 463 456 447 438 427 414 400 384 370 353 335 316 299
364 366 370 374 376 377 378 379 382 388 394 398 404 407 409 410 413 417 419 420 420 420 420 421 421 422 425 429 429 428 428 427 425 424 424 423 426 430 432 434 434 435 437 438 440 439 437 437 437 437 437 438 440 442 446 447 448 448 449 450 452 453 455 457 459 460 462 463 464 466 469 471 478 489 501 520 537 550 568 584 593 598 604 611 618 625 635 647 657 664 672 679 683 683 683 683 681 680 677 675 674 675 677 678 679 679 678 678 677 676 676 674 673 671 668 664 658 652 648 646 642 638 632 626 620 613 605 599 594 584 574 568 566 565 562 560 558 554 558 559 562 563 560 558 561 565 568 569 569 567 567 568 568 568 567 566 563 559 556 550 543 539 535 530 524 515 504 496 491 484 478 471 466 459 449 437 428 419 408 389 371 354 335 316 297 284
375 376 378 380 382 385 387 389 394 399 404 407 409 411 413 415 418 421 423 423 423 422 422 423 424 426 428 431 432 432 431 430 429 429 428 429 431 435 436 436 438 440 441 442 443 441 441 441 443 443 443 444 445 447 449 450 451 453 455 455 456 458 459 461 463 465 466 466 466 469 472 475 480 494 515 530 545 558 574 588 596 602 612 622 629 635 645 657 668 675 681 686 688 688 687 687 687 685 685 684 687 691 693 692 691 694 693 694 693 692 693 693 692 690 686 681 675 669 665 663 660 656 650 645 638 630 621 616 612 605 598 591 586 585 583 577 575 575 576 575 576 579 579 578 581 586 589 589 588 585 582 581 582 585 583 580 578 574 571 569 565 557 552 546 535 524 514 504 495 485 475 467 460 452 441 431 421 408 390 371 352 336 322 304 286 275
386 384 383 385 390 392 395 398 403 408 410 411 414 416 418 420 421 423 424 425 425 425 425 425 427 428 431 431 432 433 432 432 432 431 430 429 431 435 438 439 441 443 444 447 447 447 446 446 447 448 448 449 449 450 452 453 456 458 460 462 463 464 465 466 468 470 469 468 467 467 472 477 492 506 525 542 552 564 580 590 599 609 620 632 639 646 654 666 675 681 686 690 693 694 695 694 695 694 694 696 700 705 709 711 713 713 712 709 708 709 709 707 707 706 702 695 688 682 679 675 671 668 663 657 650 642 634 628 625 622 620 618 615 608 599 592 585 591 597 596 597 595 595 596 598 601 604 608 609 605 602 601 601 600 599 597 594 592 590 585 581 576 568 558 544 532 524 514 499 488 476 466 456 443 431 418 405 391 375 357 339 324 311 295 280 268
396 392 390 392 396 399 404 408 411 414 415 417 418 421 423 425 426 426 427 428 429 428 428 427 429 430 432 433 433 433 434 434 434 434 433 434 434 436 438 441 444 447 450 452 453 452 451 451 453 453 454 455 455 457 459 460 463 465 468 468 468 469 471 472 473 474 472 470 470 473 477 485 504 519 533 548 561 573 584 595 607 620 630 641 648 656 667 678 685 690 693 695 700 703 707 709 710 715 714 715 720 725 728 729 733 734 730 728 728 731 730 731 734 731 722 712 705 698 694 691 688 681 674 668 662 656 652 651 651 652 655 660 671 684 693 697 683 654 633 629 622 616 617 616 615 617 621 626 628 629 629 626 622 618 614 612 612 611 606 601 595 590 583 571 559 547 529 515 504 493 476 460 445 432 418 404 386 371 356 340 327 314 300 286 276 267
400 400 399 402 405 408 410 413 415 417 417 419 421 421 423 425 427 428 429 429 430 429 428 429 430 432 434 435 436 436 435 435 435 436 438 440 441 440 441 445 450 453 455 457 457 456 456 456 458 459 458 458 461 465 470 470 470 471 472 473 473 473 474 475 475 475 475 474 475 481 489 498 511 527 540 553 568 581 590 603 618 630 640 650 659 667 679 689 698 702 705 710 715 723 725 727 732 735 739 741 744 747 750 754 753 752 751 750 751 754 755 756 755 752 743 735 727 718 713 708 700 693 689 684 680 678 677 678 681 688 695 704 705 710 717 712 707 697 679 659 647 641 637 635 636 637 640 644 646 648 648 648 647 642 637 638 637 632 623 616 609 602 596 585 571 559 544 526 509 493 475 456 435 416 400 386 374 365 351 335 319 305 292 284 279 275
404 404 406 408 409 410 412 413 415 417 418 418 419 419 421 425 427 429 430 430 430 430 430 432 433 435 438 439 440 440 438 437 436 438 441 443 444 445 448 451 455 456 457 458 458 459 461 462 462 463 464 463 465 470 472 473 472 473 473 473 473 474 475 475 478 479 480 481 485 492 500 508 518 532 545 558 574 587 600 615 629 643 653 664 672 682 693 705 713 716 721 726 733 737 742 748 753 755 756 759 759 763 767 771 771 770 771 773 774 775 775 772 769 763 757 751 745 737 727 717 713 711 707 703 700 697 698 700 706 715 724 731 735 736 732 727 722 715 699 683 669 661 657 656 655 658 660 662 667 672 675 676 675 671 667 664 660 652 641 629 621 616 610 597 580 564 549 532 512 492 476 452 432 417 401 385 369 356 341 323 310 298 290 284 279 272
409 409 410 409 409 410 410 412 414 415 415 416 416 418 421 424 427 430 432 432 432 433 435 437 439 441 442 442 442 441 442 441 443 445 447 448 449 450 453 457 458 458 458 458 460 462 465 466 467 467 467 468 469 472 473 474 475 475 476 476 476 476 478 481 482 483 485 489 493 499 509 519 530 542 553 567 583 598 612 627 641 653 665 675 685 697 708 717 722 728 733 738 744 751 761 765 769 773 771 770 772 777 781 785 787 787 788 788 788 787 784 781 776 770 766 763 758 751 743 736 731 727 724 719 717 718 719 723 728 734 742 750 754 754 752 747 744 737 725 713 696 680 675 672 671 677 684 690 696 698 697 695 696 692 685 677 670 655 642 634 628 624 618 605 591 573 555 537 517 496 478 459 440 421 398 377 363 349 333 320 310 301 294 286 280 275
410 412 412 412 410 410 411 412 414 414 415 415 416 419 422 424 427 430 432 433 434 436 438 440 441 441 442 441 441 442 443 445 447 450 450 449 449 450 453 456 458 459 459 459 462 465 468 469 469 470 471 472 474 475 477 478 480 481 483 485 485 486 486 489 490 492 495 497 500 507 518 530 538 548 561 574 591 608 623 637 649 660 671 684 697 708 718 728 735 741 748 754 759 768 776 781 784 786 789 789 792 796 799 801 800 800 799 798 796 794 791 787 782 779 776 774 771 767 760 756 752 749 746 743 743 747 751 752 753 756 761 764 767 771 773 773 771 764 752 736 719 705 701 700 704 710 711 712 710 705 699 699 700 697 693 685 669 654 642 632 629 627 619 604 582 566 551 532 513 494 476 457 438 418 397 375 360 346 335 324 316 307 297 290 287 284
413 414 414 414 415 415 416 416 416 416 416 416 417 420 422 426 429 432 434 436 438 441 442 443 444 443 443 443 442 443 445 446 446 446 446 446 445 448 451 455 459 460 461 462 465 469 472 472 474 475 476 477 479 481 482 484 487 490 492 493 494 495 496 496 496 498 501 505 508 515 526 536 549 562 575 589 603 617 632 645 654 664 678 693 708 721 732 741 753 759 765 773 778 784 791 794 797 799 800 803 805 810 811 816 817 814 812 808 805 801 798 796 794 790 790 793 792 788 785 780 777 776 772 767 765 769 772 774 774 775 776 779 784 788 791 792 792 782 768 755 744 733 723 724 726 726 725 722 717 709 703 700 698 695 690 680 668 654 641 630 622 619 606 587 569 552 532 515 498 482 469 457 444 424 400 381 365 353 342 334 324 312 305 300 296 294
417 418 419 420 421 421 421 422 421 421 420 420 422 423 426 430 434 437 439 442 446 449 449 449 448 449 451 452 451 452 451 449 448 447 446 445 446 447 451 455 458 461 463 465 469 474 477 479 480 481 481 483 486 489 492 494 497 500 501 501 502 503 503 503 504 506 508 511 515 523 535 548 561 574 590 603 616 630 643 654 666 676 690 707 722 734 745 757 770 779 787 791 796 799 803 806 809 813 816 817 821 823 827 831 832 829 827 825 821 816 812 811 809 809 809 808 808 805 801 798 795 792 788 785 784 788 791 795 795 793 792 792 795 799 801 803 795 785 774 763 752 742 732 729 727 723 718 711 703 697 691 687 686 680 673 662 649 639 629 616 603 593 582 569 556 542 524 503 487 475 464 454 442 425 404 387 374 360 347 338 331 321 312 310 308 306
424 425 426 428 429 429 429 428 427 426 425 427 429 432 435 438 441 444 447 449 452 455 455 455 456 459 461 462 462 459 455 453 451 450 449 448 448 448 451 454 457 461 465 469 473 476 480 484 486 487 489 491 493 496 499 502 506 509 511 512 512 511 510 511 512 513 515 519 523 534 544 560 570 583 601 618 632 643 653 664 675 691 708 725 737 745 756 771 786 798 803 806 809 812 816 821 825 829 830 833 837 841 845 846 845 844 845 843 841 837 835 833 832 831 833 831 827 823 819 817 814 811 811 810 809 809 812 813 812 812 811 809 807 806 806 802 796 786 775 763 750 738 730 721 714 711 703 694 685 679 674 669 664 658 648 639 632 623 608 592 581 570 559 552 545 526 504 492 483 472 462 452 437 417 401 389 377 362 350 341 331 322 318 317 316 314
430 431 431 432 433 433 433 432 432 433 436 437 439 442 444 447 450 452 454 455 458 459 460 464 467 471 472 471 470 465 461 457 455 453 452 451 450 451 451 454 457 462 467 472 476 480 484 488 490 493 496 497 499 502 506 511 515 519 521 522 522 521 520 520 521 523 526 531 539 551 563 574 581 593 612 631 643 653 666 675 690 707 723 740 751 758 769 783 797 807 815 817 820 824 828 833 838 841 842 845 848 851 854 856 857 857 857 857 855 854 853 853 854 855 853 851 846 842 841 840 838 837 835 834 832 831 830 831 832 832 832 826 818 813 808 801 792 781 768 757 745 732 722 711 702 697 690 680 671 664 656 648 641 636 629 623 616 607 594 581 571 561 552 541 529 514 496 482 471 461 450 440 428 408 390 381 373 364 353 343 335 328 325 325 324 321
436 436 437 437 437 436 437 437 438 442 443 445 446 448 450 452 455 458 460 462 461 462 466 470 476 479 481 482 480 475 467 461 457 455 454 453 453 453 455 455 459 465 471 476 482 485 490 492 493 496 500 503 505 510 515 519 522 525 527 528 529 530 530 530 530 532 536 544 553 565 576 584 596 609 626 642 657 669 680 693 708 721 737 748 756 767 780 794 806 815 820 823 829 835 841 846 850 853 856 858 860 862 863 864 865 867 869 868 868 870 870 872 871 871 869 867 865 861 858 856 854 854 853 850 848 846 845 844 847 850 847 841 830 818 807 801 792 778 764 752 740 727 712 697 687 677 667 660 654 645 637 630 623 618 613 609 605 594 583 574 563 549 536 527 515 493 478 471 461 448 436 426 410 392 381 375 371 363 355 348 341 336 333 333 332 330
440 442 443 442 441 441 441 441 441 443 446 448 450 452 453 455 459 463 467 468 469 469 471 475 479 483 487 487 484 479 471 464 461 460 458 456 456 456 456 458 461 467 474 481 488 492 495 497 499 503 506 508 512 517 521 524 528 530 531 532 533 535 537 538 539 541 546 556 566 576 584 597 612 627 641 655 668 681 693 708 722 734 746 754 766 779 795 809 819 824 828 832 838 846 854 857 860 864 869 871 870 871 873 874 876 879 880 881 882 884 887 889 891 892 891 893 891 888 887 883 880 877 873 868 863 860 858 860 863 862 861 852 841 828 815 804 792 778 763 749 736 723 708 691 678 664 653 642 634 626 620 615 610 605 602 599 590 578 566 557 547 536 525 509 488 474 464 456 448 436 422 409 398 387 375 369 366 363 358 354 349 343 339 336 333 330
444 445 445 445 445 445 446 446 445 447 450 454 456 458 459 461 467 471 473 474 475 475 477 480 483 487 491 492 490 482 474 469 467 467 466 465 464 463 463 464 467 472 479 487 492 496 499 503 506 510 513 515 519 523 526 530 533 536 539 540 541 542 545 547 550 552 557 568 580 590 600 612 626 641 655 669 681 694 708 720 732 746 760 773 786 796 813 820 832 838 843 849 854 859 861 866 870 876 879 880 881 884 884 885 887 888 890 892 894 899 904 907 907 909 913 916 917 916 912 906 900 894 889 886 889 891 889 890 891 886 876 866 854 840 828 815 802 785 766 747 729 717 705 689 673 662 649 635 621 611 606 602 598 596 592 588 578 564 556 550 540 529 516 498 480 466 456 448 435 424 416 408 396 385 379 375 372 369 366 362 359 354 345 337 330 327
449 449 448 448 449 450 450 450 451 453 457 462 464 466 468 473 476 479 479 479 480 482 484 486 489 492 495 497 497 489 480 476 473 472 471 470 470 469 469 470 473 478 485 491 496 500 503 508 512 516 519 522 525 529 533 536 540 544 548 551 554 555 556 559 563 567 572 581 594 604 616 628 638 651 670 685 695 707 721 733 743 757 778 797 817 822 834 842 851 860 865 866 869 873 878 879 887 890 890 892 893 895 898 899 901 903 905 908 912 917 921 924 928 931 934 938 941 938 931 925 918 912 909 911 913 912 911 911 906 900 890 878 868 860 846 830 818 806 787 763 733 709 697 684 670 658 647 632 617 606 598 593 589 585 580 569 558 553 549 543 534 520 507 492 476 462 451 441 430 421 415 407 396 388 385 383 380 377 373 369 363 357 348 338 332 328
454 454 453 453 454 454 455 455 456 459 462 465 469 472 476 480 483 484 485 486 488 490 493 495 497 498 500 502 499 493 485 480 477 475 474 473 473 473 472 473 476 481 487 494 500 504 508 513 518 521 524 528 532 536 540 543 548 552 556 560 564 565 568 571 578 587 596 603 611 621 636 647 659 677 692 704 713 721 735 753 766 781 800 816 833 844 854 866 875 884 886 887 890 893 896 900 902 902 901 899 901 906 911 915 921 925 929 931 933 937 941 944 949 952 954 957 958 954 947 944 941 939 935 932 930 929 926 922 917 910 901 890 880 871 859 836 818 808 796 778 751 726 706 683 670 662 652 637 620 607 597 590 582 577 569 560 550 544 539 531 521 509 494 480 466 457 450 442 434 427 422 411 401 395 391 390 387 382 377 371 365 356 347 339 334 330
459 459 460 460 461 461 460 461 462 462 465 468 472 476 480 484 487 488 490 492 494 497 501 503 505 505 505 506 501 494 487 483 479 478 477 477 477 476 476 477 479 483 490 499 508 512 517 522 525 528 531 535 540 544 547 551 555 561 567 571 574 577 580 587 599 609 617 625 635 650 658 668 682 699 714 726 736 748 761 768 779 796 815 834 853 863 874 885 896 905 908 910 911 913 910 912 913 915 911 912 914 920 929 935 940 944 947 950 955 960 964 968 972 975 978 979 979 974 970 967 963 957 954 952 951 949 942 934 924 913 904 893 881 866 850 836 823 810 796 774 751 733 715 701 684 666 657 647 631 613 599 590 580 570 560 550 541 534 527 518 511 502 487 473 467 461 456 450 443 436 429 419 408 402 400 397 392 387 380 372 364 354 344 338 333 329
464 463 466 470 471 468 466 465 465 466 468 472 475 480 485 488 490 491 493 496 500 505 508 510 511 511 510 508 508 501 492 485 482 481 482 482 481 480 481 483 486 492 500 508 517 523 527 531 532 535 539 544 549 552 555 558 563 570 577 584 589 591 599 608 618 629 637 646 662 674 680 688 695 716 735 748 765 777 783 790 803 818 839 857 868 879 890 902 914 923 928 930 933 932 929 926 927 930 932 936 940 946 957 955 961 964 968 972 976 981 984 989 993 995 997 999 995 991 987 985 981 978 975 973 967 956 947 935 922 911 899 886 874 864 849 831 817 804 782 758 745 733 723 709 691 676 661 647 631 616 604 591 579 564 552 543 535 528 520 512 503 492 482 474 468 465 458 450 444 438 431 424 415 407 403 401 397 390 381 375 366 355 347 340 334 330
469 471 476 480 481 478 475 474 472 474 475 479 484 489 491 492 494 495 498 502 507 512 514 517 520 520 516 515 509 502 496 491 488 487 487 487 486 485 486 489 497 506 513 521 529 535 538 540 541 545 549 553 557 561 564 568 573 579 588 595 603 611 619 626 636 645 652 659 676 693 703 711 721 740 760 771 781 795 807 815 828 845 859 872 884 893 905 916 926 937 941 945 946 948 946 948 952 953 960 965 976 982 983 980 982 986 991 994 996 1000 1004 1012 1013 1011 1011 1009 1007 1004 1001 999 997 992 986 978 968 956 943 931 919 907 895 881 866 853 840 828 811 792 775 758 745 734 720 705 690 675 662 649 637 622 606 591 575 560 549 538 530 523 516 508 500 490 480 476 474 468 460 452 446 439 433 427 420 413 407 403 398 392 386 378 368 358 352 348 343 336
481 485 488 490 487 485 483 485 487 490 493 497 503 503 502 501 502 504 507 511 516 519 522 524 528 530 526 522 516 508 503 498 496 494 494 493 493 495 497 505 513 523 530 534 539 543 546 552 557 559 562 565 568 573 580 585 591 597 602 609 616 624 632 640 649 655 660 670 688 703 713 726 737 751 770 786 801 816 828 841 851 865 878 888 897 905 915 926 937 945 950 955 957 960 967 974 981 985 990 995 1001 1007 1011 1009 1009 1012 1019 1022 1028 1034 1041 1041 1039 1034 1027 1023 1020 1020 1021 1018 1013 1006 996 984 969 953 937 924 913 903 891 875 858 845 834 818 799 784 769 756 743 731 718 704 690 677 665 652 638 621 604 591 577 562 548 537 528 520 516 511 504 495 487 481 477 473 463 455 449 444 438 432 426 419 412 405 398 390 383 374 366 360 355 350 345 340
496 501 502 501 500 495 498 502 505 507 512 518 519 520 521 521 519 520 522 523 525 525 527 527 528 529 530 529 524 519 512 508 506 504 504 503 503 508 513 526 537 544 547 550 553 555 559 565 570 575 579 585 587 591 596 604 611 618 623 627 632 639 648 653 656 661 671 682 696 709 719 733 744 756 775 790 812 830 844 856 872 885 894 906 913 920 925 937 946 955 962 966 972 980 986 995 1002 1010 1015 1016 1020 1027 1032 1037 1041 1044 1050 1054 1059 1063 1062 1062 1060 1058 1055 1052 1047 1043 1038 1032 1024 1013 1002 990 973 953 935 921 909 895 881 868 854 840 825 811 798 784 767 751 741 730 715 701 689 675 660 647 635 622 609 596 584 570 556 544 533 525 519 515 510 504 496 488 480 473 466 459 454 448 443 436 428 421 414 408 401 394 387 380 371 362 353 346 341 336
520 518 517 515 515 516 517 521 527 532 534 534 534 535 535 534 533 533 533 534 533 532 530 529 527 527 529 532 530 527 525 521 520 520 519 519 521 529 539 546 554 557 560 563 566 569 575 581 585 589 594 598 601 604 608 617 626 630 636 640 645 652 659 665 672 677 686 698 704 714 723 738 752 767 780 797 817 837 852 866 883 901 915 927 932 941 945 953 962 973 977 981 988 995 1002 1011 1020 1029 1035 1040 1045 1051 1059 1066 1069 1074 1080 1082 1085 1082 1078 1076 1073 1070 1068 1064 1059 1050 1041 1034 1023 1010 997 986 972 955 936 921 908 893 878 867 854 838 823 809 796 780 763 749 737 725 712 699 684 669 658 647 636 625 612 599 586 575 566 555 546 537 527 519 515 509 498 488 479 474 468 460 454 449 443 438 433 425 416 409 403 397 390 384 374 363 354 343 337 334
552 557 554 549 546 545 545 548 551 554 557 557 556 555 552 550 548 544 543 540 537 535 532 530 529 530 532 534 535 535 534 536 535 536 539 543 551 560 563 566 566 568 575 580 584 587 593 599 602 605 607 609 614 620 629 635 637 642 647 653 658 664 675 682 687 692 700 708 716 724 735 745 761 780 793 807 823 840 855 870 888 906 925 936 946 954 962 972 980 987 992 997 1007 1016 1023 1031 1038 1046 1056 1063 1069 1075 1082 1090 1100 1110 1117 1119 1113 1105 1099 1093 1089 1083 1078 1071 1061 1048 1036 1026 1015 1000 986 975 964 948 936 922 906 892 880 866 851 835 821 809 797 781 764 748 734 724 712 699 685 670 656 647 636 623 611 598 587 578 570 562 554 545 535 527 518 510 500 489 480 472 467 462 455 449 444 440 434 426 416 410 404 399 393 385 376 366 357 349 343 341
580 579 576 576 574 569 568 570 573 574 576 580 582 580 578 577 567 559 552 545 542 538 537 535 536 539 540 542 542 543 544 546 547 548 549 556 564 569 572 574 579 584 590 596 602 604 607 613 618 624 628 633 640 644 649 651 655 661 670 678 679 684 690 695 700 703 707 711 720 731 742 753 768 787 802 814 827 843 859 873 892 912 927 940 952 963 976 989 995 1002 1008 1014 1026 1035 1041 1046 1052 1061 1069 1078 1085 1092 1099 1107 1117 1126 1130 1129 1126 1122 1115 1110 1105 1098 1089 1077 1062 1045 1032 1021 1009 997 986 974 962 949 937 919 901 886 876 866 851 835 821 809 798 784 768 753 739 725 711 698 686 671 658 647 638 628 617 604 591 582 574 564 556 549 540 530 521 511 503 494 484 475 468 461 455 449 444 439 431 423 416 410 404 399 392 386 377 368 359 354 350 347
600 601 601 599 598 598 597 598 597 599 601 601 602 603 601 595 588 578 566 556 550 550 548 545 545 547 551 552 553 554 554 556 557 560 563 566 571 580 586 591 597 600 606 618 623 629 632 636 645 652 659 660 664 666 667 670 675 687 695 697 699 700 703 709 715 718 722 726 730 741 752 761 775 792 806 818 830 844 862 879 898 920 935 945 958 970 986 1003 1010 1018 1025 1030 1037 1046 1053 1063 1069 1075 1084 1090 1096 1104 1114 1121 1129 1133 1135 1135 1135 1134 1132 1125 1117 1109 1100 1086 1066 1047 1036 1024 1013 1001 988 975 963 947 932 918 901 885 872 863 852 837 820 807 796 781 765 753 739 725 712 698 685 672 661 652 644 635 622 608 598 588 576 565 557 549 541 532 520 510 504 498 490 480 471 462 453 448 444 436 429 422 417 412 406 399 393 386 380 372 364 358 353 349
616 619 619 618 617 617 621 624 625 624 620 620 620 620 618 614 609 601 593 580 568 562 556 555 554 557 562 565 567 568 569 570 573 577 581 591 595 609 616 625 629 634 650 660 659 663 667 674 681 686 689 690 687 688 692 694 701 706 710 713 714 716 719 724 727 732 736 740 746 753 761 770 781 793 806 820 832 845 865 887 907 925 937 950 960 972 988 1004 1014 1023 1034 1039 1045 1055 1067 1077 1085 1088 1093 1097 1103 1110 1119 1126 1133 1137 1140 1143 1147 1147 1140 1133 1126 1116 1106 1091 1075 1057 1040 1028 1016 999 984 971 957 946 934 918 904 892 879 868 852 835 821 808 793 779 768 755 739 726 714 700 686 676 667 657 647 636 625 615 605 592 580 570 560 552 544 536 526 516 506 498 491 485 475 465 459 454 447 439 430 425 421 415 409 401 394 391 388 383 377 369 361 357
632 635 637 638 639 638 639 641 640 639 638 638 639 639 635 631 624 615 605 593 584 578 570 564 567 571 575 578 582 583 583 586 590 602 613 626 640 651 660 663 666 672 678 683 686 689 696 702 705 707 708 708 710 712 713 716 723 729 732 732 733 734 737 741 748 750 756 762 763 767 770 777 790 801 810 825 839 853 867 885 904 922 938 950 958 970 987 1000 1010 1020 1031 1041 1052 1067 1079 1088 1092 1095 1098 1104 1110 1117 1124 1130 1139 1145 1149 1154 1155 1154 1148 1139 1130 1121 1109 1095 1077 1059 1045 1032 1017 1001 984 973 964 952 938 925 911 896 881 865 850 834 820 807 794 781 765 751 740 730 717 704 696 687 679 669 654 641 632 621 610 599 588 578 569 561 553 544 535 527 515 502 493 483 475 467 460 456 450 443 436 431 430 426 418 410 402 396 394 391 386 381 376 373
649 652 655 656 655 655 656 654 656 658 657 657 656 654 650 644 638 632 622 612 604 597 592 589 583 583 585 588 590 603 605 611 628 642 652 659 669 676 685 689 695 699 702 707 712 716 718 721 724 725 725 732 738 738 739 741 744 750 752 751 751 752 757 763 769 772 778 779 781 782 787 795 801 812 822 833 846 858 870 883 902 922 937 947 957 971 987 1001 1011 1021 1032 1049 1066 1079 1090 1098 1102 1104 1105 1109 1118 1126 1132 1139 1145 1151 1156 1160 1163 1161 1156 1150 1141 1131 1118 1102 1087 1073 1056 1038 1025 1008 988 975 964 956 945 931 918 901 885 869 851 835 821 809 798 785 773 761 750 741 732 720 708 700 695 685 673 662 647 630 617 606 596 588 577 567 557 549 542 533 523 512 502 492 480 473 469 462 456 451 447 444 443 439 431 420 414 411 407 404 398 393 387 382
671 677 677 679 678 677 675 679 688 688 682 682 682 677 672 664 656 649 644 642 635 625 619 623 618 611 612 615 626 639 641 653 658 669 674 679 687 696 709 716 719 723 727 731 734 738 740 741 741 745 751 756 759 760 763 766 768 769 768 767 766 770 775 779 784 790 792 797 801 808 814 818 825 827 834 839 846 857 874 895 911 925 938 949 958 971 987 1000 1010 1023 1040 1058 1075 1087 1095 1103 1107 1110 1115 1119 1124 1131 1136 1140 1147 1154 1159 1163 1166 1166 1164 1158 1152 1141 1131 1120 1107 1085 1064 1051 1036 1019 1000 982 969 959 948 936 922 904 886 871 857 840 827 813 806 802 797 789 776 762 751 740 725 713 704 697 687 680 674 658 635 616 605 598 588 575 565 557 548 539 529 520 511 501 493 488 486 483 477 471 466 464 467 461 451 441 433 431 430 425 419 410 402 396
695 696 699 701 702 704 706 709 715 718 716 714 709 704 701 697 688 679 673 669 663 657 657 655 653 650 648 652 652 658 669 675 681 684 690 697 707 719 729 736 741 745 746 750 754 756 757 757 764 768 770 775 779 781 783 785 787 790 789 787 787 787 790 796 803 810 817 823 826 830 833 837 841 847 855 860 870 882 893 903 918 932 942 955 966 980 988 1004 1018 1030 1043 1062 1078 1090 1102 1109 1112 1115 1121 1127 1131 1136 1140 1145 1151 1158 1165 1170 1174 1175 1173 1172 1167 1158 1148 1136 1122 1104 1084 1067 1050 1033 1024 1012 993 970 951 936 921 907 894 882 872 861 853 850 841 830 820 809 794 779 771 762 747 733 719 712 705 697 688 671 650 634 624 612 601 589 578 568 558 551 542 531 524 518 512 509 506 505 498 492 492 491 485 479 469 461 454 447 441 437 434 427 421 419
715 714 712 714 717 721 725 729 735 739 743 744 738 734 731 723 714 705 700 693 688 683 680 677 674 672 669 668 672 681 692 697 701 704 710 720 729 735 743 752 759 765 766 771 775 778 782 782 788 791 795 799 800 797 797 801 806 810 816 820 820 820 819 820 825 831 835 841 849 853 858 864 866 872 877 882 892 906 913 921 936 946 964 972 984 996 1006 1025 1034 1042 1052 1066 1083 1096 1109 1117 1120 1124 1130 1136 1140 1145 1149 1152 1157 1163 1170 1179 1186 1189 1189 1185 1178 1168 1158 1149 1137 1121 1099 1076 1056 1038 1025 1012 996 979 958 938 927 920 915 908 898 890 880 866 851 840 831 824 818 811 805 799 780 761 749 739 725 711 698 686 673 656 639 626 615 605 593 584 578 569 561 553 546 541 536 532 531 525 519 517 513 506 500 492 484 479 472 463 456 451 447 442 440 439
739 740 739 740 747 753 755 762 764 767 764 765 763 759 756 751 739 724 709 705 701 695 691 689 687 686 686 688 692 698 709 716 719 724 730 738 746 750 757 765 776 784 792 800 805 814 815 816 818 818 820 822 823 823 825 828 831 836 840 843 847 847 843 844 848 852 857 863 872 880 884 884 886 889 893 902 913 926 939 950 962 977 990 1001 1013 1018 1029 1042 1051 1058 1065 1077 1092 1108 1118 1125 1130 1136 1142 1147 1151 1155 1159 1162 1167 1173 1179 1186 1195 1203 1206 1204 1198 1188 1173 1157 1146 1123 1100 1082 1063 1046 1028 1012 997 985 976 961 946 939 933 928 917 905 892 878 864 852 844 839 835 828 819 804 785 772 763 753 741 722 706 695 682 670 658 647 633 621 611 607 601 593 586 578 571 560 557 555 552 548 545 541 538 529 517 509 503 498 494 484 474 467 465 465 464 461
764 767 768 775 783 789 793 792 791 791 787 783 779 780 779 776 766 758 750 735 723 715 709 704 702 704 706 710 712 715 720 728 734 737 744 755 767 771 776 788 798 808 816 826 834 843 845 847 849 849 851 850 851 848 844 851 855 859 864 867 869 871 875 877 877 880 886 893 899 901 902 905 907 913 922 933 944 954 961 972 988 1005 1020 1029 1036 1040 1045 1056 1065 1073 1082 1092 1107 1122 1133 1139 1143 1149 1155 1160 1165 1169 1171 1176 1181 1186 1191 1197 1208 1218 1220 1219 1211 1201 1178 1156 1144 1128 1100 1076 1062 1049 1035 1019 1003 995 989 983 974 963 952 940 930 916 901 889 878 868 860 853 847 842 836 823 804 788 775 761 750 739 724 713 705 695 681 666 655 644 633 630 625 617 612 601 595 591 582 580 574 571 564 559 554 549 545 535 528 523 514 505 497 492 491 489 488 489
788 794 809 814 817 819 819 817 814 810 805 800 799 800 803 802 795 791 783 766 745 731 725 721 718 721 723 725 726 728 733 741 745 748 759 770 779 789 801 815 828 838 849 855 862 868 872 874 875 876 875 872 872 870 870 874 875 883 889 891 894 899 902 900 901 908 916 923 927 928 930 932 937 944 951 960 969 977 990 1004 1018 1031 1040 1048 1055 1061 1067 1073 1079 1090 1100 1110 1123 1137 1146 1153 1159 1167 1174 1177 1179 1180 1182 1186 1191 1198 1204 1213 1222 1226 1228 1224 1215 1196 1176 1157 1140 1118 1092 1069 1061 1056 1041 1025 1019 1016 1012 1012 1001 988 973 959 942 927 914 905 898 893 886 878 867 855 844 830 819 813 803 787 772 759 743 729 722 715 703 690 683 678 668 657 649 643 638 631 625 620 608 605 603 595 586 575 570 566 562 554 548 537 525 517 514 514 514 514 515 516
832 848 852 849 845 842 840 838 833 829 824 820 826 828 831 831 828 818 811 797 778 767 754 742 738 737 737 736 737 741 750 752 759 768 778 787 798 809 821 835 847 859 869 879 886 891 894 896 898 898 897 895 892 896 903 903 905 909 913 916 919 921 922 923 925 931 937 946 949 948 950 954 958 963 970 979 990 1003 1017 1030 1041 1050 1056 1061 1071 1080 1086 1090 1098 1108 1120 1130 1144 1158 1164 1171 1178 1183 1184 1184 1186 1188 1193 1199 1205 1211 1217 1224 1230 1234 1235 1230 1220 1202 1181 1164 1147 1122 1096 1085 1077 1076 1077 1073 1058 1043 1036 1027 1016 1010 996 974 951 937 930 924 920 916 906 896 881 864 853 844 837 826 813 802 791 777 765 753 741 733 725 723 716 700 695 693 683 673 667 661 654 648 642 636 629 621 614 605 599 588 584 580 572 564 536 528 540 541 541 540 542 537
899 888 878 884 887 876 866 861 855 853 854 854 854 855 856 856 852 845 833 825 823 807 793 780 764 754 755 754 761 768 772 778 783 792 799 806 813 821 832 846 861 875 885 895 904 912 915 916 916 917 914 913 918 922 925 929 933 935 934 932 934 937 940 945 951 953 959 963 965 966 967 969 973 980 989 1002 1015 1024 1033 1044 1056 1066 1072 1079 1089 1095 1101 1108 1117 1128 1139 1152 1164 1172 1180 1187 1193 1196 1195 1195 1197 1203 1208 1214 1220 1225 1230 1235 1238 1240 1236 1232 1221 1209 1188 1163 1140 1126 1122 1112 1107 1104 1100 1092 1080 1066 1050 1037 1030 1019 1006 987 968 956 948 946 942 933 922 906 889 873 861 852 843 835 825 810 800 790 778 768 759 753 749 745 741 736 732 724 706 691 686 680 676 672 665 664 659 651 643 639 637 627 619 615 614 609 603 586 584 580 574 572 570 558
933 930 925 920 914 908 902 897 891 891 890 886 885 877 879 878 874 872 869 861 852 843 831 813 797 785 782 784 786 788 792 795 803 808 812 817 824 835 846 860 880 896 907 919 930 936 938 934 934 934 934 937 940 944 948 950 952 954 955 955 956 957 965 972 975 977 979 984 986 984 985 985 990 996 1007 1016 1028 1039 1050 1060 1073 1084 1092 1101 1109 1116 1121 1128 1139 1152 1162 1171 1179 1188 1196 1204 1210 1214 1215 1216 1221 1225 1229 1233 1237 1244 1251 1253 1252 1247 1240 1229 1219 1207 1192 1178 1166 1160 1153 1145 1136 1128 1116 1103 1090 1076 1060 1046 1035 1023 1009 995 981 969 963 958 952 943 932 916 898 883 871 861 853 844 835 824 816 809 798 784 775 770 764 759 755 751 746 738 728 715 705 700 695 691 688 683 678 672 666 662 660 655 649 648 648 647 644 637 627 621 611 601 586 568
950 944 941 938 935 933 933 931 935 937 934 928 928 923 916 910 901 896 894 887 876 867 854 835 815 808 805 800 797 797 801 805 812 819 823 830 841 851 867 893 908 921 935 947 954 958 959 958 954 954 957 961 966 970 970 970 973 977 978 981 980 985 991 995 996 997 998 1001 1003 1001 999 1002 1005 1011 1020 1030 1041 1052 1064 1077 1090 1099 1108 1117 1127 1138 1147 1156 1165 1173 1181 1189 1198 1207 1215 1222 1228 1233 1235 1237 1240 1244 1248 1253 1258 1263 1268 1268 1266 1258 1246 1233 1223 1212 1201 1192 1183 1171 1161 1152 1143 1133 1122 1107 1093 1082 1068 1053 1040 1026 1015 1004 994 983 976 968 959 949 936 924 906 890 880 872 863 854 845 836 828 822 814 803 792 781 774 767 762 760 758 751 742 734 729 725 718 711 708 704 698 691 685 680 677 676 675 673 669 665 660 653 645 635 625 613 600 585
957 952 948 947 946 950 952 956 957 957 957 958 957 956 950 936 923 916 909 901 893 885 867 848 835 826 817 814 815 817 822 824 832 845 850 863 871 889 897 919 933 946 959 967 973 977 981 982 984 984 989 995 994 994 996 999 1002 1005 1008 1014 1020 1021 1023 1020 1015 1015 1017 1021 1024 1023 1022 1021 1024 1028 1036 1050 1060 1067 1078 1091 1104 1119 1129 1139 1151 1161 1170 1180 1191 1195 1198 1207 1218 1228 1236 1243 1249 1252 1256 1264 1265 1265 1268 1269 1274 1280 1282 1280 1275 1270 1261 1244 1225 1213 1207 1199 1190 1180 1170 1157 1144 1131 1119 1107 1096 1085 1072 1055 1040 1028 1016 1007 999 990 981 970 960 949 937 924 911 898 887 877 870 864 857 848 840 834 828 817 805 793 785 779 773 768 764 759 755 751 747 739 730 724 719 716 712 706 699 692 688 687 685 682 676 669 664 658 652 642 631 619 605 589
962 957 954 955 960 963 967 971 975 982 986 984 979 979 973 962 950 934 921 911 902 892 883 868 857 853 846 838 845 849 848 858 875 887 891 898 910 922 930 942 953 962 972 982 993 997 1001 1007 1011 1014 1015 1016 1014 1018 1027 1029 1030 1033 1038 1043 1046 1048 1050 1051 1048 1040 1036 1039 1039 1039 1042 1043 1044 1046 1055 1066 1074 1081 1090 1104 1119 1133 1144 1158 1170 1181 1193 1204 1213 1218 1223 1230 1239 1247 1255 1261 1266 1272 1277 1278 1279 1275 1274 1274 1275 1275 1278 1282 1279 1274 1264 1250 1238 1222 1211 1206 1195 1183 1169 1156 1143 1132 1120 1108 1096 1084 1067 1051 1038 1025 1015 1007 999 989 979 969 960 948 936 925 916 903 890 881 874 869 864 857 850 843 835 828 814 802 793 786 779 774 769 764 759 755 750 744 737 731 724 720 717 713 708 702 695 691 689 683 676 669 663 657 651 643 634 621 605 587
970 967 968 972 977 981 985 988 996 1003 1005 1004 1000 995 987 980 970 951 935 922 909 899 889 881 875 871 867 868 875 884 891 904 914 919 923 930 936 943 954 964 973 981 992 1003 1011 1018 1022 1029 1034 1039 1042 1043 1044 1050 1058 1059 1062 1066 1070 1070 1069 1068 1070 1070 1066 1060 1056 1057 1056 1055 1055 1056 1057 1057 1062 1075 1086 1095 1109 1123 1133 1146 1162 1177 1188 1198 1209 1218 1227 1235 1242 1248 1255 1261 1266 1270 1275 1278 1278 1277 1271 1268 1268 1267 1266 1265 1265 1266 1269 1266 1256 1247 1235 1227 1221 1213 1203 1189 1175 1159 1144 1132 1121 1108 1093 1077 1062 1050 1035 1022 1014 1006 997 986 978 970 960 949 940 931 921 908 895 886 882 879 873 866 860 854 847 836 824 811 803 797 790 782 776 771 765 759 753 745 741 736 730 724 721 718 714 707 700 694 690 685 678 671 665 659 653 642 630 619 604 586
982 981 986 990 994 999 1005 1011 1016 1019 1023 1022 1016 1008 998 991 981 972 958 942 925 914 903 892 883 880 881 891 908 918 926 933 937 941 945 950 955 963 971 982 991 999 1008 1016 1025 1032 1039 1046 1053 1057 1060 1065 1070 1079 1084 1085 1088 1094 1097 1098 1095 1092 1091 1090 1088 1084 1080 1076 1074 1074 1071 1069 1069 1070 1076 1086 1098 1112 1124 1135 1147 1162 1177 1189 1202 1211 1218 1229 1240 1247 1254 1260 1266 1269 1272 1274 1274 1273 1269 1264 1257 1250 1247 1251 1255 1253 1250 1252 1251 1248 1238 1229 1228 1226 1218 1213 1204 1197 1179 1161 1143 1134 1125 1112 1091 1075 1057 1044 1033 1022 1011 1004 995 985 977 970 962 951 944 938 929 915 906 901 895 889 883 876 868 861 853 845 833 820 813 809 804 794 786 778 772 766 759 751 746 741 734 727 723 720 716 710 704 697 692 687 683 678 672 666 658 647 632 617 604 589
995 998 1002 1007 1012 1017 1024 1029 1031 1036 1039 1038 1032 1025 1017 1007 997 985 976 961 943 928 916 904 898 898 907 919 929 937 946 954 957 959 962 966 971 977 985 993 1001 1009 1017 1025 1034 1044 1053 1062 1068 1073 1076 1083 1092 1102 1110 1113 1115 1116 1117 1116 1115 1113 1113 1113 1111 1107 1102 1096 1091 1087 1085 1085 1086 1088 1094 1103 1114 1124 1136 1146 1160 1175 1188 1201 1212 1223 1233 1242 1249 1256 1262 1265 1268 1267 1266 1263 1262 1260 1255 1249 1242 1237 1235 1237 1239 1238 1237 1235 1231 1226 1219 1215 1210 1207 1207 1204 1208 1201 1190 1166 1147 1132 1126 1113 1092 1072 1053 1041 1032 1022 1012 1003 996 988 980 972 965 958 952 947 939 930 920 912 907 899 892 884 876 867 859 851 842 831 826 823 817 805 794 787 779 773 768 761 753 747 738 729 725 720 715 710 705 701 697 693 689 685 679 672 662 648 634 622 608 592
1010 1015 1019 1025 1031 1036 1040 1043 1046 1051 1053 1051 1046 1039 1029 1020 1012 998 983 966 951 941 927 922 918 923 929 937 947 955 964 969 971 972 976 981 986 991 998 1006 1015 1023 1028 1035 1048 1059 1066 1074 1081 1086 1093 1102 1111 1121 1132 1138 1139 1139 1139 1135 1131 1132 1133 1130 1130 1125 1121 1115 1110 1106 1103 1100 1100 1101 1107 1116 1125 1136 1147 1158 1170 1182 1197 1211 1223 1235 1246 1256 1259 1260 1261 1263 1260 1256 1251 1248 1245 1241 1235 1230 1226 1222 1217 1215 1219 1222 1221 1221 1220 1216 1210 1203 1196 1190 1195 1198 1208 1206 1195 1179 1160 1138 1126 1111 1089 1074 1057 1043 1032 1022 1011 1004 998 989 984 979 972 966 961 957 953 946 938 927 917 910 903 896 887 876 865 856 849 841 836 833 827 818 809 801 794 788 783 777 769 759 749 740 733 726 722 714 711 708 705 702 699 695 689 677 664 653 641 627 613 602
1026 1030 1035 1040 1044 1049 1054 1057 1060 1062 1065 1067 1063 1057 1046 1034 1022 1008 993 976 963 954 946 945 942 945 951 954 962 972 980 986 991 993 995 999 1004 1010 1017 1026 1033 1038 1044 1053 1063 1073 1081 1089 1096 1103 1112 1121 1129 1139 1147 1153 1157 1159 1157 1155 1152 1151 1149 1146 1142 1138 1133 1129 1125 1123 1119 1118 1117 1119 1121 1128 1137 1148 1159 1170 1182 1196 1209 1221 1235 1248 1257 1263 1263 1259 1256 1254 1248 1239 1234 1232 1229 1222 1215 1210 1206 1202 1198 1195 1198 1201 1199 1195 1193 1189 1184 1176 1176 1178 1186 1193 1199 1205 1198 1187 1174 1154 1137 1124 1104 1086 1059 1047 1037 1026 1015 1006 998 992 987 983 978 972 966 962 958 955 950 940 931 921 913 906 896 886 874 864 857 849 844 840 837 832 827 824 814 806 801 795 788 775 763 752 747 743 737 731 726 722 718 714 710 704 695 684 673 660 646 632 622 613
1036 1043 1049 1053 1058 1062 1067 1073 1074 1076 1080 1082 1081 1076 1068 1058 1041 1021 1005 990 980 970 960 956 958 961 966 972 981 990 997 1002 1006 1010 1015 1021 1025 1031 1035 1041 1047 1053 1059 1067 1077 1087 1096 1104 1112 1120 1128 1135 1144 1152 1160 1166 1171 1175 1176 1173 1170 1167 1166 1164 1159 1153 1146 1141 1139 1137 1135 1134 1132 1131 1134 1138 1145 1157 1170 1184 1200 1210 1219 1232 1245 1252 1257 1253 1249 1243 1238 1236 1230 1223 1219 1217 1215 1209 1203 1196 1189 1182 1176 1176 1174 1172 1162 1161 1160 1159 1160 1155 1159 1167 1172 1179 1186 1196 1208 1198 1176 1156 1155 1147 1126 1089 1058 1050 1043 1033 1021 1009 1001 995 990 986 982 977 972 968 966 961 956 949 941 930 921 914 905 895 885 877 871 865 859 854 851 848 841 836 828 819 813 808 802 793 780 767 761 757 753 745 738 735 731 726 718 712 702 690 678 662 649 640 632 626
1048 1055 1062 1066 1071 1077 1083 1088 1091 1093 1093 1095 1097 1095 1090 1080 1063 1048 1031 1011 996 986 978 976 978 985 988 992 998 1006 1013 1021 1027 1030 1035 1038 1042 1048 1054 1059 1063 1067 1074 1081 1091 1100 1108 1116 1125 1134 1143 1150 1158 1168 1177 1183 1187 1190 1192 1188 1185 1182 1179 1176 1172 1166 1159 1156 1153 1152 1149 1146 1147 1149 1151 1155 1161 1170 1182 1198 1213 1225 1237 1248 1255 1260 1252 1242 1233 1224 1210 1201 1202 1203 1201 1198 1191 1184 1178 1173 1168 1162 1156 1152 1148 1140 1130 1113 1136 1137 1136 1130 1138 1145 1155 1161 1172 1186 1197 1200 1185 1176 1175 1168 1148 1116 1078 1054 1049 1042 1032 1020 1009 999 994 989 987 983 979 976 971 966 959 953 944 936 927 921 915 907 897 891 887 881 876 871 866 863 857 847 837 828 821 817 813 808 797 786 778 771 766 762 754 746 740 735 729 719 708 695 681 669 658 651 646 640
1061 1068 1074 1080 1085 1091 1098 1104 1107 1110 1112 1112 1112 1112 1109 1099 1083 1068 1058 1051 1034 1012 1005 1006 1011 1014 1013 1015 1017 1023 1035 1042 1046 1051 1056 1061 1064 1067 1069 1072 1077 1083 1090 1098 1105 1112 1121 1131 1142 1153 1159 1166 1175 1185 1195 1203 1206 1208 1209 1207 1202 1197 1191 1188 1185 1180 1178 1175 1171 1167 1164 1162 1164 1167 1171 1173 1177 1188 1202 1224 1237 1243 1251 1257 1260 1256 1248 1235 1223 1207 1188 1181 1178 1175 1174 1172 1167 1161 1158 1156 1150 1143 1137 1132 1128 1123 1117 1103 1116 1105 1107 1114 1122 1123 1138 1148 1158 1165 1179 1185 1187 1185 1187 1180 1174 1134 1105 1085 1068 1056 1044 1032 1022 1012 1002 997 993 990 985 979 974 967 961 955 948 939 934 930 924 917 912 907 902 895 888 882 876 867 859 851 844 837 830 825 821 817 811 804 794 787 783 777 771 762 753 746 741 732 719 707 697 687 674 668 664 660
1075 1081 1088 1091 1097 1102 1110 1117 1120 1125 1128 1128 1128 1127 1124 1118 1104 1085 1064 1053 1045 1035 1028 1028 1029 1029 1030 1032 1039 1047 1053 1060 1066 1071 1075 1080 1080 1080 1082 1089 1095 1101 1108 1117 1125 1135 1145 1156 1164 1170 1177 1184 1193 1205 1215 1222 1225 1229 1227 1224 1219 1213 1207 1202 1199 1197 1194 1190 1186 1182 1181 1179 1177 1179 1182 1188 1198 1211 1230 1246 1257 1260 1261 1259 1254 1240 1228 1221 1212 1198 1180 1166 1155 1155 1155 1151 1147 1143 1138 1132 1128 1123 1117 1112 1109 1107 1104 1095 1069 1069 1076 1091 1102 1113 1118 1127 1139 1132 1154 1158 1175 1177 1182 1179 1173 1136 1121 1106 1088 1067 1053 1042 1034 1024 1015 1007 1003 997 991 985 979 972 967 960 953 948 943 938 933 929 924 917 912 905 895 889 882 872 863 855 850 845 840 835 831 828 825 821 814 806 799 792 783 773 764 758 753 749 742 734 727 717 706 693 686 680
1085 1093 1097 1101 1106 1114 1121 1126 1133 1140 1142 1146 1144 1144 1142 1140 1133 1119 1107 1094 1078 1064 1056 1053 1052 1051 1052 1057 1062 1065 1070 1076 1079 1082 1088 1093 1098 1100 1107 1115 1121 1124 1130 1137 1147 1157 1166 1174 1180 1186 1193 1203 1214 1221 1226 1232 1241 1243 1242 1238 1233 1229 1223 1216 1212 1209 1206 1202 1200 1200 1202 1203 1208 1214 1221 1228 1243 1258 1264 1272 1266 1263 1260 1257 1241 1224 1210 1200 1198 1196 1173 1158 1152 1143 1136 1133 1128 1122 1116 1111 1107 1103 1099 1095 1091 1085 1081 1061 1053 1055 1061 1074 1083 1093 1103 1109 1111 1120 1129 1139 1146 1157 1164 1164 1164 1155 1138 1119 1102 1086 1066 1055 1044 1034 1025 1016 1013 1010 1005 1000 994 986 978 970 963 957 953 947 939 935 930 924 919 914 908 901 893 883 873 864 860 856 853 849 846 842 841 836 828 821 814 808 800 789 782 778 772 763 757 750 742 735 727 718 711 710
1093 1100 1104 1110 1117 1126 1133 1140 1145 1155 1159 1164 1165 1165 1165 1160 1147 1132 1118 1106 1096 1087 1080 1076 1072 1069 1071 1073 1077 1079 1083 1087 1091 1094 1100 1109 1117 1123 1131 1137 1140 1142 1148 1158 1166 1175 1182 1190 1196 1203 1210 1220 1228 1234 1239 1244 1251 1255 1257 1254 1250 1244 1238 1232 1226 1222 1219 1218 1218 1223 1227 1234 1243 1248 1256 1270 1283 1288 1289 1281 1272 1264 1256 1251 1243 1222 1203 1195 1191 1172 1153 1141 1133 1126 1116 1107 1104 1101 1097 1092 1088 1085 1084 1079 1068 1056 1044 1045 1043 1042 1050 1060 1073 1081 1094 1099 1099 1100 1104 1111 1115 1116 1139 1143 1151 1150 1143 1128 1115 1104 1089 1072 1058 1049 1042 1032 1025 1020 1016 1013 1007 1001 993 984 977 970 966 960 951 945 939 934 928 925 921 914 906 900 892 887 881 877 874 869 865 861 858 854 847 840 835 827 821 814 810 803 792 781 771 765 760 754 746 741 739 735
1103 1108 1114 1120 1129 1138 1146 1155 1161 1167 1173 1180 1183 1184 1182 1173 1161 1148 1135 1124 1113 1107 1101 1093 1085 1081 1080 1081 1084 1086 1091 1096 1102 1107 1114 1123 1133 1142 1149 1154 1161 1165 1171 1181 1188 1193 1199 1205 1211 1218 1226 1236 1243 1248 1252 1256 1262 1267 1271 1272 1268 1264 1258 1252 1248 1245 1244 1247 1250 1253 1260 1266 1267 1270 1278 1288 1297 1303 1303 1292 1274 1262 1256 1249 1237 1213 1193 1168 1151 1139 1134 1129 1125 1108 1090 1081 1080 1080 1076 1071 1067 1064 1060 1052 1044 1037 1032 1028 1023 1022 1027 1042 1052 1068 1085 1089 1088 1088 1093 1096 1102 1112 1109 1123 1131 1135 1129 1126 1121 1115 1104 1086 1069 1063 1057 1048 1042 1034 1030 1025 1020 1012 1006 999 993 991 989 983 972 964 960 953 948 945 939 932 922 913 910 906 904 899 894 890 881 876 871 867 862 858 852 847 843 837 829 821 813 814 812 802 790 780 770 761 758 753
1114 1118 1125 1132 1139 1147 1157 1166 1172 1178 1184 1192 1197 1200 1196 1188 1175 1165 1151 1140 1129 1125 1118 1109 1099 1092 1087 1087 1090 1094 1100 1108 1116 1123 1131 1139 1151 1161 1167 1172 1178 1186 1194 1200 1206 1211 1217 1224 1230 1237 1244 1250 1255 1259 1261 1267 1271 1275 1281 1283 1282 1282 1279 1274 1265 1262 1260 1266 1269 1270 1273 1278 1282 1286 1296 1309 1316 1321 1325 1326 1315 1302 1279 1251 1238 1206 1184 1163 1139 1128 1108 1100 1088 1075 1069 1060 1052 1049 1049 1044 1038 1032 1027 1020 1012 1003 1011 1007 1004 1003 1007 1013 1023 1035 1045 1053 1055 1058 1065 1068 1077 1085 1093 1100 1112 1113 1113 1115 1111 1106 1098 1091 1081 1076 1073 1070 1064 1060 1055 1047 1043 1036 1022 1015 1014 1014 1009 1006 1000 990 981 973 970 967 962 957 949 936 929 925 918 913 907 903 898 892 886 882 878 874 870 868 866 863 854 845 839 833 830 821 809 799 791 783 774 768
1122 1128 1136 1143 1149 1157 1164 1171 1178 1186 1194 1201 1208 1212 1211 1202 1194 1183 1173 1165 1156 1148 1139 1126 1115 1102 1099 1096 1100 1107 1115 1124 1132 1141 1149 1157 1165 1173 1181 1188 1197 1205 1212 1219 1225 1229 1234 1240 1246 1251 1255 1261 1265 1271 1279 1283 1287 1291 1297 1298 1297 1301 1309 1310 1300 1298 1296 1284 1277 1285 1291 1311 1330 1336 1341 1337 1332 1328 1324 1319 1312 1302 1294 1281 1251 1240 1203 1160 1131 1124 1104 1072 1057 1044 1041 1033 1029 1028 1023 1018 1014 1009 1003 996 987 979 974 977 980 984 992 995 1002 1010 1012 1013 1016 1024 1034 1049 1059 1066 1070 1071 1077 1091 1094 1098 1098 1100 1097 1098 1100 1097 1094 1087 1084 1078 1074 1071 1070 1067 1069 1063 1052 1054 1042 1032 1028 1025 1011 996 991 988 983 978 972 966 958 957 947 937 932 925 919 916 913 912 913 906 900 894 894 890 878 872 868 862 850 844 835 823 808 800 793 785
1134 1140 1147 1154 1161 1168 1174 1178 1185 1194 1202 1210 1216 1220 1220 1218 1213 1209 1199 1190 1180 1170 1160 1148 1134 1125 1120 1118 1121 1128 1134 1141 1146 1153 1160 1168 1178 1188 1196 1206 1217 1226 1232 1236 1241 1245 1249 1253 1257 1262 1267 1273 1280 1285 1291 1299 1306 1310 1315 1315 1317 1324 1329 1332 1325 1330 1340 1340 1330 1326 1348 1366 1361 1364 1356 1345 1334 1323 1312 1310 1310 1298 1286 1277 1262 1232 1204 1166 1147 1125 1050 1039 1035 1032 1026 1019 1014 1009 1004 999 995 990 983 975 971 967 957 961 959 964 971 978 986 992 994 993 996 998 1008 1021 1033 1048 1054 1057 1063 1070 1072 1078 1087 1090 1097 1102 1111 1111 1111 1105 1100 1099 1098 1103 1103 1104 1114 1104 1095 1084 1068 1060 1056 1056 1055 1043 1028 1010 1005 996 994 992 990 986 977 972 962 947 943 940 940 938 937 933 932 924 917 913 905 902 893 893 880 870 856 843 831 826 817 810
1144 1151 1157 1165 1171 1178 1182 1186 1194 1203 1212 1219 1226 1229 1228 1228 1228 1227 1221 1209 1196 1187 1174 1166 1160 1146 1142 1140 1142 1145 1151 1155 1160 1167 1177 1187 1197 1208 1216 1226 1237 1243 1248 1253 1256 1259 1262 1266 1270 1273 1279 1287 1293 1297 1302 1308 1315 1320 1324 1326 1326 1329 1331 1331 1335 1336 1337 1338 1337 1336 1344 1354 1355 1351 1343 1336 1320 1305 1304 1303 1298 1291 1284 1274 1260 1240 1202 1170 1159 1124 1081 1051 1044 1037 1030 1020 1008 996 989 982 975 966 958 952 949 946 942 939 937 938 943 947 951 953 954 961 967 976 988 1000 1006 1019 1026 1028 1037 1053 1056 1051 1056 1067 1084 1101 1110 1120 1124 1119 1112 1116 1114 1120 1123 1120 1112 1104 1089 1076 1068 1064 1063 1076 1067 1059 1048 1039 1035 1042 1020 1010 1002 999 990 982 976 967 956 948 949 946 943 940 937 933 927 923 922 926 917 908 897 895 867 859 851 842 834 829
1154 1162 1170 1176 1184 1190 1198 1202 1209 1216 1223 1230 1236 1241 1242 1244 1245 1243 1237 1231 1218 1205 1192 1178 1170 1166 1159 1156 1157 1159 1162 1166 1171 1178 1190 1201 1209 1217 1226 1236 1247 1254 1259 1265 1274 1276 1278 1283 1288 1291 1299 1306 1309 1312 1318 1323 1332 1336 1332 1327 1321 1319 1322 1328 1330 1323 1318 1314 1312 1320 1326 1328 1344 1340 1329 1312 1300 1296 1293 1290 1285 1279 1271 1261 1238 1204 1177 1156 1136 1103 1069 1055 1048 1039 1031 1020 1004 989 975 962 955 947 940 934 930 925 920 917 915 912 913 915 921 926 931 936 944 951 962 975 984 994 996 1005 1010 1019 1032 1033 1033 1048 1069 1087 1101 1114 1125 1124 1117 1112 1122 1122 1116 1109 1100 1090 1082 1076 1067 1056 1055 1057 1055 1052 1051 1053 1046 1032 1020 1006 998 993 985 979 976 972 966 957 946 938 937 936 932 928 920 918 918 917 917 921 922 906 896 877 862 852 840 832
1159 1166 1174 1181 1189 1197 1208 1215 1224 1232 1236 1240 1246 1250 1254 1257 1259 1257 1251 1245 1236 1229 1214 1205 1196 1184 1177 1173 1170 1170 1172 1175 1179 1188 1199 1207 1213 1220 1227 1237 1247 1256 1262 1270 1278 1285 1285 1290 1303 1309 1303 1310 1314 1317 1326 1332 1333 1334 1327 1321 1313 1302 1299 1299 1299 1291 1294 1294 1298 1304 1311 1314 1312 1311 1299 1288 1282 1282 1282 1275 1265 1256 1248 1233 1214 1194 1167 1143 1122 1094 1065 1053 1044 1039 1031 1015 998 979 962 952 943 934 927 921 915 908 899 890 889 888 894 896 900 905 912 918 925 931 940 953 965 971 980 988 992 996 998 1006 1022 1041 1059 1075 1090 1107 1118 1122 1129 1115 1119 1111 1108 1098 1088 1081 1074 1066 1055 1043 1032 1029 1035 1038 1033 1034 1031 1022 1014 1002 993 983 977 969 964 964 961 950 939 930 926 924 923 922 922 922 921 920 921 918 914 909 894 876 861 848 836 827
1162 1168 1175 1185 1194 1205 1216 1226 1232 1238 1243 1248 1254 1260 1266 1270 1270 1268 1258 1251 1251 1242 1231 1222 1218 1210 1202 1193 1189 1191 1188 1189 1192 1198 1203 1209 1214 1220 1225 1231 1239 1247 1253 1261 1270 1278 1290 1304 1308 1307 1305 1310 1313 1317 1320 1329 1326 1313 1304 1283 1287 1288 1284 1279 1277 1276 1282 1282 1285 1286 1280 1283 1283 1285 1271 1261 1259 1261 1263 1256 1244 1232 1218 1206 1198 1186 1165 1144 1116 1088 1067 1049 1041 1030 1017 1003 989 974 959 946 934 925 916 910 904 894 883 874 869 867 873 873 876 879 886 895 903 915 928 939 948 954 961 972 981 985 987 996 1009 1028 1042 1062 1078 1095 1106 1102 1106 1095 1090 1084 1086 1077 1067 1058 1049 1042 1036 1026 1017 1014 1016 1012 1007 1004 1004 1004 1003 986 967 963 961 958 953 948 942 935 928 920 912 904 903 905 911 916 917 915 903 887 887 889 879 866 853 842 830 818
1162 1167 1176 1185 1197 1206 1221 1228 1236 1241 1248 1254 1259 1265 1269 1276 1274 1267 1266 1261 1254 1251 1246 1240 1238 1236 1232 1225 1206 1196 1213 1206 1205 1205 1206 1209 1211 1215 1217 1217 1221 1228 1239 1246 1255 1262 1273 1283 1289 1295 1300 1307 1310 1311 1307 1300 1297 1293 1289 1268 1270 1263 1259 1251 1252 1254 1256 1267 1272 1273 1267 1264 1260 1253 1243 1244 1237 1228 1225 1223 1218 1208 1199 1188 1171 1157 1147 1132 1113 1090 1071 1054 1039 1025 1007 990 980 970 954 940 932 923 911 899 886 878 871 865 862 860 866 859 856 858 868 880 886 899 908 920 925 932 944 959 971 980 983 988 994 1003 1014 1033 1059 1073 1083 1090 1086 1081 1074 1070 1062 1054 1041 1026 1018 1011 1008 1005 1000 996 995 992 985 982 981 980 972 960 944 936 939 938 929 916 903 897 897 891 882 878 875 889 905 905 902 883 880 868 867 866 863 852 840 830 819 810
1159 1164 1171 1180 1189 1197 1208 1222 1228 1235 1251 1252 1256 1255 1263 1257 1269 1269 1266 1261 1256 1250 1251 1248 1233 1231 1223 1224 1221 1213 1222 1214 1207 1203 1201 1199 1199 1203 1196 1194 1206 1217 1222 1227 1231 1235 1236 1238 1246 1261 1266 1274 1283 1284 1280 1277 1271 1267 1246 1242 1236 1232 1233 1232 1235 1241 1247 1246 1245 1249 1250 1247 1241 1233 1228 1225 1210 1203 1201 1198 1194 1187 1180 1164 1147 1131 1118 1113 1108 1086 1064 1047 1032 1020 1005 990 975 963 949 937 928 917 902 887 877 868 863 861 859 857 846 844 840 839 846 857 863 873 884 893 901 915 932 944 957 965 972 972 978 982 991 1007 1023 1042 1055 1079 1072 1070 1070 1056 1050 1039 1024 1009 999 990 988 985 981 979 976 971 965 960 952 949 945 932 924 918 912 910 903 891 882 875 871 866 859 853 850 846 849 871 874 870 866 864 844 844 844 837 829 819 808 799
1150 1156 1163 1170 1176 1183 1196 1193 1198 1212 1217 1221 1225 1228 1234 1238 1241 1237 1235 1239 1244 1248 1239 1233 1226 1217 1207 1212 1220 1216 1213 1206 1196 1188 1181 1178 1178 1178 1176 1177 1181 1197 1205 1216 1223 1221 1229 1225 1222 1220 1225 1235 1240 1252 1257 1256 1244 1233 1229 1222 1202 1204 1209 1211 1210 1209 1204 1205 1209 1219 1219 1216 1215 1207 1202 1199 1187 1180 1179 1175 1166 1157 1150 1144 1130 1116 1105 1094 1085 1072 1052 1033 1018 1007 996 984 971 961 952 940 926 914 901 889 878 865 858 850 845 837 830 823 819 821 827 833 838 849 857 869 879 898 917 924 932 943 948 951 961 969 974 987 1000 1016 1031 1050 1057 1055 1052 1040 1038 1028 1014 1000 987 975 966 960 958 953 948 945 938 934 924 916 913 910 903 895 888 882 877 872 865 859 854 849 842 834 826 817 813 843 840 837 831 833 832 828 827 828 823 813 799 790
1140 1144 1149 1155 1163 1171 1164 1173 1172 1180 1181 1187 1198 1202 1202 1203 1205 1209 1210 1216 1218 1216 1218 1222 1203 1194 1188 1188 1200 1195 1185 1177 1180 1166 1162 1160 1158 1157 1158 1158 1160 1165 1173 1193 1202 1207 1206 1202 1200 1198 1195 1199 1205 1213 1213 1208 1204 1196 1195 1186 1179 1179 1182 1185 1185 1181 1174 1175 1179 1186 1188 1188 1186 1183 1180 1179 1169 1163 1157 1149 1141 1131 1125 1120 1112 1103 1092 1081 1070 1059 1047 1035 1024 1013 1003 991 978 966 952 940 928 916 902 889 877 864 850 838 829 820 814 809 807 808 808 817 825 834 842 850 864 879 890 895 908 920 928 934 943 951 958 967 984 998 1011 1020 1024 1034 1031 1030 1021 1009 997 986 971 956 945 938 931 924 920 917 912 908 902 898 897 893 885 874 867 861 856 852 848 840 832 824 815 808 799 797 797 806 809 810 810 808 811 810 810 812 808 798 785 769
1125 1127 1130 1133 1136 1140 1146 1145 1146 1145 1141 1151 1167 1175 1180 1182 1183 1186 1182 1180 1177 1182 1190 1185 1188 1191 1187 1189 1189 1189 1179 1165 1158 1149 1149 1147 1142 1150 1150 1147 1148 1149 1153 1156 1166 1173 1173 1168 1171 1174 1180 1183 1189 1193 1192 1180 1170 1163 1161 1159 1160 1161 1163 1164 1166 1163 1160 1159 1159 1159 1159 1165 1169 1168 1165 1159 1153 1143 1133 1126 1119 1114 1108 1102 1095 1087 1079 1072 1063 1056 1048 1040 1027 1015 1007 1000 987 972 957 942 933 930 920 899 877 864 847 832 821 812 805 799 796 796 796 803 814 823 830 837 845 856 868 875 882 897 912 917 923 932 939 949 962 977 983 1003 1008 1013 1017 1015 1005 997 985 966 951 938 926 915 908 905 900 893 889 885 883 881 879 875 868 860 848 836 835 834 826 818 801 785 782 781 778 777 775 780 780 779 782 787 792 786 781 779 776 767 752 745
1110 1109 1110 1115 1124 1127 1128 1126 1127 1129 1131 1133 1135 1137 1143 1145 1145 1142 1144 1141 1144 1150 1150 1154 1156 1159 1165 1170 1173 1171 1164 1150 1137 1137 1136 1134 1141 1143 1144 1140 1130 1127 1126 1129 1128 1125 1132 1137 1144 1151 1160 1166 1167 1170 1164 1162 1156 1152 1147 1140 1139 1141 1142 1138 1140 1138 1141 1141 1141 1138 1136 1143 1151 1151 1143 1137 1132 1127 1122 1114 1105 1097 1092 1084 1076 1069 1064 1057 1050 1044 1040 1033 1024 1019 1015 1008 997 984 969 953 942 940 931 904 877 854 837 829 819 806 794 788 784 784 774 784 795 805 812 819 826 836 847 857 865 873 887 899 905 916 927 935 947 956 969 983 990 994 1001 998 993 988 977 963 942 925 910 900 895 889 880 874 869 862 855 854 854 850 846 840 832 825 818 811 802 789 776 768 765 762 759 755 749 746 755 757 758 758 755 756 759 756 745 735 732 728
1094 1094 1095 1101 1111 1114 1116 1113 1109 1110 1114 1117 1117 1119 1118 1118 1117 1116 1111 1107 1109 1117 1127 1134 1141 1146 1151 1153 1152 1149 1138 1130 1118 1111 1108 1106 1105 1120 1116 1114 1107 1110 1111 1112 1110 1108 1108 1107 1113 1123 1128 1131 1135 1142 1139 1137 1135 1131 1106 1113 1114 1115 1114 1111 1110 1107 1105 1105 1107 1107 1112 1119 1127 1131 1130 1121 1113 1114 1111 1107 1095 1085 1077 1069 1058 1047 1040 1035 1032 1031 1028 1026 1024 1020 1018 1014 1013 1004 986 969 954 942 940 935 902 861 836 817 799 788 779 775 771 768 762 757 771 780 791 798 805 812 824 834 845 857 865 876 888 900 914 924 934 946 956 960 970 975 979 976 973 969 958 943 928 913 901 890 884 875 861 849 844 838 834 835 837 834 831 827 822 814 803 794 785 776 766 758 753 747 741 735 729 728 729 730 733 732 731 732 731 727 723 716 712 710
1081 1080 1079 1083 1085 1093 1097 1099 1097 1094 1095 1099 1099 1100 1097 1097 1094 1088 1076 1073 1077 1082 1092 1101 1112 1122 1126 1126 1124 1123 1115 1109 1100 1093 1088 1085 1082 1096 1088 1085 1086 1096 1095 1091 1086 1091 1090 1090 1093 1098 1110 1115 1119 1122 1119 1116 1112 1096 1089 1084 1093 1093 1092 1087 1087 1086 1083 1084 1075 1078 1084 1088 1087 1101 1102 1098 1092 1092 1095 1089 1080 1072 1063 1053 1042 1034 1028 1022 1019 1018 1016 1014 1012 1009 1008 1010 1011 1007 999 977 958 947 933 921 910 889 833 779 777 774 767 761 757 754 752 752 755 763 776 785 791 797 805 814 826 840 852 862 873 884 898 908 914 925 934 952 957 959 963 961 954 948 939 926 913 901 889 881 871 856 843 832 824 817 815 815 816 818 814 808 805 802 793 782 771 763 752 742 732 726 722 718 713 710 708 707 710 714 715 714 712 706 700 695 692 686
1068 1065 1064 1064 1069 1071 1077 1078 1079 1078 1070 1073 1069 1064 1071 1064 1062 1048 1046 1045 1047 1054 1055 1066 1078 1084 1092 1095 1096 1091 1085 1078 1075 1073 1073 1068 1062 1074 1068 1067 1069 1071 1068 1058 1058 1063 1068 1072 1077 1080 1085 1094 1107 1109 1103 1104 1098 1080 1082 1074 1070 1077 1068 1069 1069 1072 1069 1051 1046 1046 1049 1055 1065 1067 1068 1071 1075 1077 1078 1075 1070 1062 1051 1041 1032 1023 1014 1008 1004 1000 996 997 998 998 997 997 998 995 989 978 965 946 927 911 894 870 845 817 788 769 761 753 748 742 741 743 749 750 760 771 780 784 788 796 810 825 839 851 859 867 881 895 898 901 907 928 928 934 946 947 941 940 934 920 906 893 881 867 852 838 824 816 810 805 801 798 799 800 797 795 793 791 783 770 758 746 735 725 718 713 706 702 698 694 690 687 688 690 690 689 687 685 681 678 675 671
1059 1051 1048 1049 1053 1052 1056 1049 1044 1056 1050 1042 1041 1039 1037 1034 1040 1035 1031 1030 1029 1029 1035 1045 1053 1056 1068 1072 1074 1069 1063 1054 1055 1057 1054 1048 1042 1039 1057 1060 1063 1050 1038 1035 1039 1043 1050 1054 1057 1062 1069 1076 1085 1092 1097 1083 1082 1073 1065 1060 1053 1047 1041 1041 1040 1041 1040 1022 1032 1038 1039 1042 1045 1052 1055 1055 1061 1066 1064 1062 1058 1049 1038 1028 1019 1010 1002 995 986 980 980 981 983 985 984 984 982 980 977 972 956 930 906 891 877 857 836 811 786 771 758 746 735 731 730 732 734 738 743 753 762 769 772 779 794 810 826 835 842 853 861 873 881 888 896 903 912 917 925 929 929 928 914 905 894 881 867 853 838 822 809 800 792 787 783 780 777 779 785 787 787 783 772 759 746 733 724 716 709 701 693 688 684 678 673 669 667 667 668 667 665 664 663 663 660 656
1055 1043 1034 1032 1034 1034 1036 1035 1030 1024 1024 1024 1023 1024 1023 1023 1022 1021 1020 1020 1020 1017 1021 1028 1028 1025 1030 1033 1041 1045 1038 1036 1035 1033 1031 1028 1024 1021 1018 1018 1035 1024 1015 1010 1014 1013 1024 1039 1044 1045 1055 1057 1071 1071 1063 1068 1065 1058 1045 1036 1028 1021 1017 1015 1013 1011 1016 1007 1007 1011 1016 1024 1028 1031 1035 1037 1039 1040 1042 1039 1038 1037 1030 1020 1011 1001 990 979 969 965 962 963 965 966 968 971 971 971 965 959 939 916 898 880 865 849 829 809 787 767 750 734 720 716 716 719 720 722 727 734 743 751 759 768 779 794 811 820 833 841 846 855 869 866 876 882 899 898 905 909 909 888 882 881 873 860 848 838 824 810 799 789 781 775 767 760 759 765 772 773 771 768 760 749 737 725 715 705 695 687 682 677 671 664 655 649 647 647 649 649 648 645 641 641 642 639
1055 1039 1025 1019 1012 1016 1021 1019 1011 1006 1009 1011 1011 1012 1007 1005 1009 1014 1010 1004 1005 1003 1004 1006 1011 1013 1010 1009 1010 1016 1026 1023 1017 1013 1009 1004 999 995 993 997 1002 1002 999 992 993 1007 1010 1016 1022 1031 1034 1041 1044 1047 1051 1051 1048 1040 1023 1009 1004 1000 996 992 991 990 989 988 991 994 996 1001 1007 1011 1013 1015 1018 1018 1015 1015 1019 1019 1016 1011 999 986 972 961 951 946 942 942 943 946 949 951 954 954 953 943 928 907 887 874 858 836 815 796 777 763 746 728 718 713 711 710 709 711 712 718 726 736 744 756 768 779 796 808 817 828 832 838 852 864 873 879 882 887 896 892 883 870 856 856 853 845 836 825 814 800 788 781 773 759 749 743 740 741 744 748 751 748 745 736 724 709 697 688 680 673 668 662 656 648 637 628 630 633 635 636 633 629 628 626 622 620
1051 1037 1023 1011 1002 997 993 991 988 989 990 991 993 993 991 990 984 980 978 982 983 987 979 985 992 996 999 996 1000 1006 1008 1007 1000 993 988 983 980 977 974 973 977 980 978 978 981 984 990 995 999 1008 1018 1026 1031 1034 1036 1031 1025 1013 1002 994 986 982 979 977 977 978 975 973 977 984 984 984 984 988 995 996 999 1000 999 1002 1009 1008 1005 1000 987 974 959 946 940 934 926 920 921 921 922 924 927 929 930 920 904 888 874 860 846 828 807 787 769 754 738 723 711 706 704 702 701 702 703 706 714 724 731 741 757 771 783 794 800 805 816 825 827 836 846 851 852 861 869 863 854 848 838 846 844 837 827 816 803 791 785 774 759 746 736 726 719 718 723 726 729 730 727 718 707 696 684 675 666 659 653 646 638 627 618 614 613 613 616 618 616 613 613 616 612 606
1047 1031 1018 1008 1002 992 981 975 972 972 973 972 971 975 979 973 968 962 955 958 962 962 962 974 983 976 974 972 976 984 987 986 983 977 972 969 966 964 961 959 960 960 955 957 961 967 973 979 984 990 999 1009 1015 1021 1020 1017 1006 996 987 979 969 965 964 962 960 960 962 961 958 959 972 980 959 963 967 974 977 983 982 986 990 991 990 985 979 963 947 936 927 919 912 907 904 902 901 900 901 903 899 894 882 868 858 846 834 818 798 776 760 745 727 713 705 698 694 690 689 689 690 693 699 709 719 730 745 760 770 776 784 791 797 808 810 809 815 815 814 815 812 807 809 816 821 819 824 822 816 804 793 785 777 766 754 740 727 716 711 709 711 713 713 714 714 713 703 691 680 669 657 649 642 635 626 617 609 607 606 605 603 601 600 602 604 606 606 601
1044 1031 1018 1009 1001 992 979 966 962 958 957 956 958 960 959 957 951 946 948 951 947 948 951 954 957 960 965 965 969 974 978 976 970 963 958 954 950 946 943 941 939 935 931 939 944 945 952 962 968 973 978 987 999 1002 1004 1002 995 987 976 965 957 952 951 948 943 944 945 944 944 943 942 943 946 943 945 949 957 961 967 963 967 972 973 968 961 949 936 924 913 904 896 891 889 886 884 884 884 881 879 872 862 851 840 826 813 801 788 773 756 737 722 711 698 690 683 678 677 676 678 681 687 695 704 714 726 740 751 759 770 780 787 792 800 796 794 794 788 785 784 783 784 787 794 799 796 799 800 795 784 776 768 757 745 732 720 711 702 700 700 702 703 705 706 705 698 688 676 664 654 645 635 625 614 604 599 596 597 596 591 586 586 589 593 596 595 593
1037 1027 1017 1009 1000 985 970 959 951 946 942 940 941 940 939 936 934 934 934 932 932 931 930 937 939 939 949 956 964 969 970 968 960 951 944 938 934 930 925 921 918 921 922 925 926 929 931 940 948 952 960 969 978 988 988 987 983 978 967 953 943 938 934 930 926 924 923 924 925 926 924 923 924 925 926 931 934 947 947 941 944 947 946 946 941 934 923 911 900 890 883 876 870 869 867 866 864 863 863 857 845 834 822 808 793 784 776 765 749 733 720 705 692 683 674 673 671 670 670 673 678 687 694 698 706 715 729 742 753 763 773 780 780 788 790 785 780 775 770 769 774 776 773 762 776 781 783 784 776 767 756 744 732 721 710 702 695 690 689 688 688 691 695 693 690 685 678 664 650 640 630 618 607 597 589 582 580 579 578 576 576 579 579 579 574 572
1026 1017 1007 997 985 973 962 951 943 934 924 921 922 923 921 920 919 914 914 914 912 913 917 919 922 926 931 942 952 957 960 957 949 937 925 918 915 911 907 904 903 905 907 909 914 917 923 927 933 939 948 957 966 975 977 971 970 965 956 945 933 923 914 907 903 903 904 908 911 910 907 905 904 906 907 907 910 917 925 927 930 932 931 926 921 914 904 892 884 877 869 861 856 853 850 848 847 847 847 842 835 826 810 796 783 772 762 751 734 719 710 699 685 674 667 665 664 662 661 663 664 672 684 690 694 701 712 725 735 745 757 768 760 765 767 764 760 759 756 751 748 748 752 761 761 765 768 767 762 754 744 733 721 709 701 694 688 681 676 672 673 676 680 681 682 682 682 667 652 641 631 618 603 592 582 573 567 562 562 564 568 572 572 564 558 554
1016 1009 998 988 976 965 951 939 922 912 907 903 903 905 904 904 903 899 895 898 899 896 903 909 916 920 928 936 940 942 943 941 936 922 909 901 893 892 891 889 888 888 891 893 898 905 910 920 923 929 938 946 955 964 964 960 961 957 945 932 922 912 901 893 892 892 893 895 894 894 892 890 885 881 882 889 893 903 911 911 910 912 912 909 905 897 887 880 873 866 859 850 843 840 837 834 833 833 831 829 824 814 801 785 772 763 750 733 720 709 700 691 679 668 663 657 656 655 656 656 656 658 669 680 685 689 699 714 724 736 746 745 748 751 751 749 743 738 734 729 727 733 739 741 741 750 748 747 745 736 727 718 710 702 694 688 679 668 660 655 657 663 665 665 667 669 667 661 654 645 628 610 600 592 582 571 560 553 549 549 558 565 561 556 548 532
1002 996 988 980 970 960 945 925 908 896 889 886 884 883 883 879 877 877 879 881 879 876 883 891 897 908 919 929 930 934 932 931 920 909 899 889 882 878 877 875 871 870 872 875 878 883 891 897 908 914 922 931 938 948 953 951 952 943 934 925 915 905 893 887 881 880 879 878 878 876 873 869 867 865 866 869 870 870 878 888 891 891 892 891 888 880 873 866 859 852 843 837 833 829 824 819 815 814 813 812 810 802 787 773 762 753 744 726 709 701 692 683 673 663 655 650 647 646 648 651 650 649 657 665 671 676 686 699 710 719 728 733 736 740 739 736 730 724 720 716 715 717 720 725 728 733 734 734 730 721 710 702 696 691 687 677 665 653 642 636 632 635 645 649 648 651 654 658 652 637 621 605 592 583 574 562 548 533 523 523 526 535 534 526 508 485
989 981 971 962 954 942 928 912 895 881 870 859 852 848 851 854 854 851 850 855 859 865 871 878 882 892 904 916 922 921 918 910 902 893 883 872 866 862 861 859 857 854 855 858 860 864 866 875 882 895 902 914 922 930 938 940 940 937 929 922 914 903 889 878 871 866 862 859 856 856 856 851 846 849 854 856 855 854 855 859 866 872 874 875 872 868 862 856 846 835 825 821 815 808 802 797 798 798 796 794 792 789 777 765 755 743 730 716 703 692 680 670 659 651 646 641 636 636 639 642 644 645 646 651 657 663 675 692 700 708 715 721 726 725 723 718 712 708 704 700 697 699 701 707 713 724 717 720 711 701 696 691 686 682 671 662 653 642 633 623 616 617 620 624 630 636 643 644 636 628 614 599 583 566 557 543 528 516 507 510 515 517 518 495 475 470
982 971 954 938 927 919 908 894 881 867 854 844 840 836 833 831 831 831 830 837 844 852 858 864 875 882 896 905 911 910 906 896 886 878 870 857 848 847 846 843 841 839 839 840 843 848 854 861 870 876 885 894 904 916 923 924 922 920 917 913 904 894 882 871 862 855 849 844 840 839 840 838 835 836 837 838 839 841 843 848 851 856 860 861 862 863 859 849 837 824 813 806 800 793 786 785 785 784 784 782 781 777 771 761 749 736 724 711 696 681 669 658 650 644 638 633 631 630 632 636 639 640 641 642 647 654 669 682 691 698 707 714 716 712 707 698 690 686 683 679 674 679 676 684 686 695 701 698 694 690 685 679 671 659 649 641 635 630 623 614 608 604 603 609 614 621 629 631 626 619 612 602 577 554 544 533 520 507 501 497 499 493 475 464 461 458
974 958 941 925 913 905 896 885 872 856 842 832 825 822 820 819 817 816 818 823 827 836 844 847 854 862 876 890 897 894 893 886 881 871 856 845 838 834 831 828 823 822 822 824 826 832 844 856 864 871 871 878 887 898 902 895 904 905 903 899 892 884 874 865 856 848 841 832 827 825 825 825 824 823 822 823 824 825 828 834 839 842 843 843 844 845 846 841 825 811 800 791 786 780 774 771 770 770 771 771 770 767 762 749 735 727 720 705 688 677 666 655 646 636 631 628 626 625 626 629 631 633 634 637 642 647 661 674 686 696 701 707 706 703 693 684 676 669 665 662 661 662 663 668 668 669 675 678 680 677 672 664 654 644 635 629 625 617 609 601 596 592 591 591 594 598 601 605 605 597 585 566 552 544 533 521 509 498 489 483 473 457 448 441 439 437
970 951 932 918 909 897 887 875 860 846 833 825 817 810 804 805 807 807 807 810 812 815 827 833 839 846 856 873 881 875 876 875 868 857 846 835 827 823 818 813 809 807 809 810 811 815 825 837 851 858 860 864 872 879 887 884 891 892 892 886 880 874 869 860 850 839 830 824 817 814 811 807 807 804 803 803 804 805 808 813 816 820 824 825 827 832 832 824 813 800 788 779 773 768 764 761 757 754 754 755 754 752 749 742 735 723 709 698 688 678 670 658 644 632 623 618 618 617 619 620 622 624 626 632 639 645 653 669 683 691 696 694 690 684 678 670 661 654 649 644 642 641 643 643 649 654 658 659 657 656 656 651 645 636 628 621 615 607 598 589 582 577 576 577 582 587 592 592 586 568 547 537 530 524 519 507 495 486 477 466 455 444 434 431 428 422
964 944 929 916 903 891 878 865 855 844 831 820 809 800 795 793 793 795 796 797 798 801 808 819 832 837 839 855 864 859 858 858 853 845 836 828 821 813 807 800 795 795 797 799 799 799 805 812 825 835 840 848 854 860 856 865 876 885 876 870 864 859 855 849 839 827 819 813 807 802 797 794 792 790 789 788 789 790 793 793 794 797 802 811 818 816 813 806 800 790 779 771 764 759 754 749 746 744 743 742 741 739 737 736 731 725 713 698 686 676 666 653 639 626 619 614 610 608 608 610 610 612 618 625 631 637 647 661 677 684 683 679 673 667 660 650 641 635 629 626 625 625 623 621 622 627 635 642 641 639 637 629 623 619 615 609 602 594 586 574 565 560 562 565 570 576 580 583 565 547 532 519 515 510 503 494 485 477 467 455 446 437 430 425 419 411
958 941 926 912 899 884 871 861 849 838 829 820 808 797 791 786 784 783 782 783 787 789 794 805 818 826 833 838 849 853 845 844 843 838 829 819 810 802 795 790 786 786 787 788 788 789 791 798 804 810 818 827 834 836 836 843 851 857 852 847 844 841 836 828 822 817 809 800 792 788 785 782 780 778 777 777 775 774 772 772 774 775 782 790 798 803 800 797 794 785 773 763 754 747 738 735 732 731 730 728 727 726 724 725 725 722 710 694 680 668 656 647 637 626 616 609 603 600 599 599 599 601 608 616 623 631 639 648 658 667 666 663 657 649 641 633 629 624 617 612 610 609 604 604 610 615 620 623 625 624 617 607 601 597 594 589 582 573 564 556 548 546 544 550 558 562 563 558 549 530 514 506 501 496 489 482 475 468 462 456 446 434 427 419 406 393
956 939 922 911 901 887 875 862 849 839 828 820 812 802 790 781 777 773 771 770 772 778 782 789 798 809 820 832 835 840 827 832 833 825 813 802 793 785 781 777 776 774 773 774 775 776 782 787 791 795 800 809 817 821 821 823 825 826 825 825 821 814 806 806 809 806 797 786 778 775 773 770 768 766 764 764 765 762 758 758 757 759 763 770 778 783 787 790 785 777 766 753 743 734 724 717 716 715 713 712 711 711 712 712 713 710 702 691 675 660 651 644 635 624 614 603 594 594 594 593 592 595 599 607 616 625 634 640 645 646 647 646 640 630 624 618 615 613 609 602 599 597 596 595 599 604 604 605 606 605 598 590 583 578 575 572 565 557 550 542 535 532 531 531 533 537 538 529 517 504 490 484 480 475 469 464 457 453 448 440 430 422 415 407 397 385
953 941 925 910 903 893 880 868 855 841 829 823 816 804 789 778 770 764 760 758 759 763 766 770 775 785 797 809 817 817 814 817 818 808 799 791 783 777 769 763 758 757 759 760 762 764 768 776 779 780 785 793 800 803 803 801 801 801 799 799 795 790 789 789 791 788 781 775 771 767 764 762 760 755 752 750 748 747 744 743 744 748 752 758 764 771 776 777 775 764 752 744 733 722 713 705 702 702 701 699 697 696 698 701 702 699 694 685 670 655 645 637 633 625 607 590 588 586 585 586 586 587 592 596 603 615 628 631 633 632 631 626 619 613 606 603 600 598 595 589 586 586 586 589 591 593 594 593 591 588 583 575 568 563 559 556 553 547 536 525 520 516 517 519 518 517 511 503 491 478 471 466 461 457 450 446 444 438 429 421 415 408 400 390 380 373
952 937 925 914 905 894 881 869 856 844 834 826 816 805 790 774 760 754 749 744 741 744 750 754 760 766 776 787 796 805 809 808 803 797 790 781 773 766 758 751 745 745 746 750 753 754 754 759 764 767 770 776 780 784 783 783 783 782 780 778 777 775 773 772 770 768 768 767 765 761 755 750 747 744 738 732 731 730 729 729 733 738 742 748 754 760 764 762 756 748 741 735 727 717 704 696 694 695 695 691 685 684 686 687 688 685 680 670 660 648 637 629 621 610 598 588 581 576 575 574 575 578 582 586 594 602 609 616 617 617 612 605 600 594 589 586 585 582 577 574 571 571 573 574 576 577 577 575 572 567 561 555 551 545 539 535 531 521 511 504 499 503 506 508 507 501 494 486 476 466 459 456 450 442 435 431 425 417 411 406 401 394 380 367 358 351
947 936 926 914 902 889 874 862 852 844 834 825 815 801 785 769 756 746 739 735 732 730 733 738 745 755 761 772 783 792 796 793 788 781 774 767 760 754 746 738 733 731 731 732 735 738 740 743 747 753 756 760 761 762 763 760 757 757 758 760 760 761 760 757 754 752 751 752 752 746 740 737 735 733 730 727 723 721 718 716 720 726 732 737 742 747 746 741 734 728 727 723 715 704 692 684 683 683 684 683 677 673 674 675 676 680 680 673 659 645 633 623 614 604 594 585 576 571 567 567 567 570 575 583 591 599 603 602 602 599 595 588 582 578 574 571 570 568 565 562 560 560 559 559 560 561 561 561 555 548 541 535 529 523 519 515 508 500 491 486 487 492 498 498 495 487 479 468 457 450 446 441 435 426 418 409 402 397 392 385 377 367 361 355 349 345
943 933 922 909 894 879 865 853 844 836 827 818 808 793 777 763 752 742 736 730 728 725 722 725 732 740 751 762 771 774 775 775 773 769 763 755 747 740 733 724 721 721 721 722 724 727 729 730 733 737 741 742 746 748 746 742 740 739 742 743 743 742 742 741 736 732 733 734 732 729 725 722 720 719 718 717 716 712 707 706 706 712 719 726 731 732 731 725 717 712 709 707 701 690 680 675 673 676 674 670 663 659 659 660 664 668 670 669 657 645 631 618 610 602 593 582 573 566 562 561 562 565 570 579 589 594 596 595 592 588 583 573 565 562 561 561 560 557 555 552 550 549 547 548 549 548 547 544 541 536 528 522 514 505 501 499 492 484 480 477 483 490 494 496 486 473 463 454 444 437 433 428 420 410 397 386 382 376 367 359 347 339 338 334 329 328
936 924 911 897 886 875 862 848 836 827 818 811 802 788 773 759 749 739 730 722 716 712 713 715 720 727 734 748 756 758 758 758 757 754 751 743 733 726 720 712 707 708 711 714 715 717 719 720 719 720 722 724 728 729 730 728 725 725 723 720 718 716 717 716 716 716 716 716 715 713 711 710 709 707 704 702 700 697 693 691 695 700 704 709 714 714 712 708 703 696 691 690 689 684 674 669 667 666 663 655 648 647 646 650 654 656 657 656 653 644 627 610 602 595 586 578 569 562 558 557 557 558 564 572 581 587 589 588 584 580 571 562 554 549 550 551 550 549 547 544 542 541 540 539 537 534 531 530 528 524 520 509 497 490 484 481 477 472 469 474 480 484 485 478 469 457 445 435 426 422 418 412 403 390 381 372 358 345 338 331 324 318 309 302 307 312
921 910 894 886 879 869 855 839 826 819 811 801 791 778 765 753 741 729 718 709 704 703 704 707 710 714 719 725 735 739 742 744 742 742 738 731 725 720 711 701 696 696 698 701 703 705 706 706 704 706 708 709 712 714 715 713 711 708 705 701 698 696 694 697 701 702 703 703 702 700 698 698 696 694 692 689 686 684 683 682 685 690 695 700 701 700 696 692 684 677 675 675 674 672 662 654 653 651 646 640 637 637 640 644 649 650 650 649 648 640 629 616 604 592 581 571 562 555 550 547 548 551 558 567 574 578 579 576 572 566 562 553 546 541 539 540 541 541 540 538 536 535 533 530 525 520 518 518 515 511 503 493 484 476 471 466 462 460 461 462 466 465 460 455 447 441 432 423 414 405 398 390 380 373 365 352 339 330 321 315 309 296 285 285 292 299
903 894 886 878 871 860 844 831 821 812 803 793 780 766 754 742 731 720 708 701 696 696 695 697 699 704 707 711 712 719 726 732 734 733 731 728 721 711 702 693 689 688 688 689 690 693 694 693 693 695 698 700 700 699 698 697 695 693 688 684 681 675 671 676 683 685 686 685 684 684 686 685 684 682 680 678 677 674 671 671 675 681 686 688 688 684 679 670 665 664 663 664 665 661 653 645 639 634 628 622 623 626 632 639 643 646 644 642 639 636 622 608 600 587 575 564 554 546 540 538 539 543 549 557 564 568 568 563 556 553 550 547 542 539 536 537 538 538 539 535 532 528 525 522 516 510 506 502 497 491 483 475 467 461 456 450 451 453 455 455 448 443 438 433 428 423 416 409 402 393 381 368 357 349 343 336 328 316 303 297 292 287 284 288 295 294
887 883 876 867 853 837 827 819 811 804 793 782 772 761 748 736 723 709 701 695 693 690 685 684 686 692 696 699 700 703 710 719 722 725 727 726 718 706 694 688 684 680 678 679 681 683 683 680 677 680 683 684 684 683 681 680 678 675 672 670 664 657 654 651 656 663 664 666 668 669 670 670 668 668 669 669 666 663 662 662 665 667 671 674 673 665 654 648 647 649 650 652 654 648 639 632 625 618 612 611 610 615 620 625 631 631 628 623 617 607 595 583 572 562 559 556 549 539 533 530 527 529 536 544 550 554 554 552 549 546 544 541 538 535 534 534 535 534 531 527 522 519 515 511 507 502 497 489 480 474 469 460 451 445 441 441 442 444 445 443 438 428 419 415 411 404 399 393 388 380 365 349 339 331 325 320 309 299 290 281 282 283 290 295 296 297
869 866 860 848 835 823 812 805 799 790 781 773 765 755 744 730 717 703 695 689 686 681 677 675 676 680 684 687 687 689 694 703 713 716 719 719 711 702 696 690 680 671 670 670 671 671 670 666 663 662 663 664 665 665 664 662 661 657 653 649 645 640 635 633 638 643 645 648 651 652 654 657 657 657 657 658 657 654 652 651 652 654 656 659 654 648 639 631 633 636 638 639 637 633 624 616 609 602 599 599 603 606 610 613 614 612 607 597 580 562 556 552 539 540 542 537 530 527 523 519 516 517 522 532 540 543 545 545 543 541 538 535 532 530 528 525 523 521 517 514 511 509 504 500 497 492 485 477 470 463 453 445 438 433 432 431 432 431 425 419 415 411 405 397 389 383 378 371 365 355 345 336 326 320 312 303 296 292 288 289 291 297 303 307 309 311
847 845 840 833 822 811 802 794 788 782 775 767 760 750 738 726 715 705 694 686 680 673 668 667 669 670 671 671 672 675 681 690 700 706 710 710 708 702 696 688 677 667 661 659 658 657 657 655 652 649 646 644 644 645 645 646 645 642 637 633 628 625 622 622 625 628 632 635 637 639 642 644 646 648 648 647 646 642 638 638 639 641 642 641 638 632 626 622 619 619 623 628 623 615 606 597 587 573 576 585 587 586 580 571 573 581 583 576 558 538 527 522 525 527 526 524 520 516 514 511 508 508 514 521 527 531 534 534 534 531 528 527 526 522 518 516 514 513 509 505 502 497 493 491 488 486 481 472 464 456 444 433 426 423 420 418 418 417 402 389 386 383 375 368 363 359 356 352 342 332 324 318 314 309 303 296 290 292 297 304 312 320 326 325 325 322
833 831 823 813 804 795 788 782 774 766 761 756 749 742 734 724 713 703 693 684 677 670 664 661 660 660 660 660 661 663 671 679 687 696 701 702 701 697 691 684 676 666 656 650 645 642 640 639 639 636 633 630 630 630 631 632 631 629 624 618 614 612 612 613 613 617 619 622 626 629 631 633 634 635 633 631 628 623 622 623 627 628 628 625 622 618 612 608 603 605 609 607 604 589 568 554 548 550 557 562 562 562 559 558 559 562 559 548 538 525 516 512 512 517 519 516 509 503 503 504 502 500 506 512 516 520 522 524 524 523 520 517 516 513 508 505 503 501 498 495 491 484 480 479 479 478 474 466 457 445 431 423 415 409 404 403 399 382 370 367 363 353 345 342 339 335 332 330 322 315 309 303 301 301 305 305 310 316 325 331 340 348 348 346 343 339
823 815 806 795 785 780 775 767 759 753 748 745 741 738 730 719 709 700 691 683 676 670 664 660 658 657 654 654 654 656 661 667 674 681 689 695 693 690 685 679 669 659 652 645 638 632 627 626 625 624 623 621 620 618 616 614 614 613 610 605 602 601 601 601 602 603 605 609 612 617 621 623 623 623 622 620 616 611 610 611 611 611 609 607 603 599 593 588 586 585 585 585 583 571 553 541 536 533 533 536 542 545 544 541 542 540 536 527 516 507 499 500 501 499 496 492 487 485 484 488 492 494 497 501 505 508 511 515 516 514 513 511 508 504 499 494 492 492 490 488 480 471 466 465 465 463 455 446 436 426 418 410 402 395 390 383 372 361 353 348 342 333 323 312 301 302 306 308 307 301 296 297 298 307 315 320 326 333 341 350 357 361 364 363 363 362
804 797 785 775 768 763 758 752 745 741 739 736 734 729 721 713 706 700 691 683 676 667 661 659 657 655 652 648 646 650 654 661 668 674 679 683 683 681 675 669 662 655 647 638 631 625 622 619 617 615 613 611 609 606 603 600 596 594 592 590 587 585 583 585 589 592 593 596 601 605 609 613 615 613 611 607 603 601 599 600 600 595 591 588 587 584 578 573 570 568 565 561 556 550 542 530 523 519 518 522 523 522 522 520 513 508 499 492 484 478 479 480 476 471 470 473 476 474 472 473 474 479 485 488 493 498 500 502 504 505 506 506 503 498 493 490 488 485 480 474 466 456 450 450 448 442 436 428 419 411 404 397 389 382 373 363 355 347 342 337 327 315 303 292 288 290 297 302 306 306 309 312 316 319 323 328 334 341 349 357 366 373 377 380 382 381
781 775 767 760 754 748 737 726 723 723 723 722 725 721 715 708 702 696 689 682 676 669 662 656 653 650 646 642 639 643 648 653 658 662 665 666 667 664 661 657 652 644 635 626 619 616 613 611 609 605 602 598 595 592 589 584 579 574 572 574 575 572 571 571 573 575 579 583 586 590 594 597 600 602 600 597 593 590 589 588 586 581 575 571 567 564 561 558 556 552 546 537 529 521 514 508 503 501 499 499 498 496 493 486 482 482 478 470 465 461 457 454 451 447 455 467 465 461 460 458 461 463 468 476 478 487 489 491 492 495 500 500 497 495 491 487 483 479 472 463 452 444 439 432 426 422 419 408 398 393 388 383 377 369 361 353 343 336 330 322 312 301 294 290 290 291 299 311 320 328 331 329 329 329 329 333 339 346 354 361 368 375 384 392 397 400
765 760 753 748 741 731 720 712 709 707 707 710 711 708 704 696 690 684 681 677 671 664 659 653 649 646 642 638 634 631 638 644 647 650 652 653 653 652 650 644 636 628 618 612 608 605 603 601 598 593 587 584 581 575 571 569 565 562 559 558 558 560 563 562 558 559 564 570 573 579 582 585 587 589 587 583 580 578 574 571 568 565 558 551 547 544 541 539 539 534 526 517 509 501 493 486 487 486 484 482 479 473 468 469 471 468 463 451 438 434 430 427 425 423 423 429 436 437 441 450 453 456 458 458 459 467 478 483 481 482 479 480 485 485 485 483 475 468 462 454 445 436 427 420 414 408 398 391 386 380 375 369 361 355 350 342 334 323 312 305 299 296 292 294 296 309 320 326 333 336 337 336 335 335 337 341 346 352 358 364 369 377 385 393 401 408
743 740 740 734 725 717 710 705 700 697 696 695 697 695 688 681 675 674 673 671 668 659 651 648 645 641 635 628 624 626 631 636 639 640 642 643 643 642 638 632 624 614 605 599 593 590 588 585 582 577 571 565 557 551 549 548 548 546 541 535 532 529 527 535 540 549 552 555 562 570 577 578 578 577 576 573 569 564 560 557 553 547 541 534 529 526 521 517 513 509 505 499 495 489 483 477 472 468 464 460 457 456 455 454 454 452 440 428 419 412 406 398 392 394 397 402 407 411 417 424 435 441 446 448 445 445 453 462 463 470 466 470 472 472 473 467 463 456 449 440 429 419 413 408 402 395 385 376 373 370 363 355 349 343 338 332 322 309 300 297 298 297 303 310 321 332 339 345 348 352 353 353 352 349 348 347 349 355 362 367 371 375 378 386 394 401
730 727 726 722 715 708 702 696 692 688 683 680 679 677 671 667 667 666 667 667 663 656 650 644 639 633 628 623 619 621 625 627 628 628 627 626 628 628 625 620 612 598 587 579 574 572 569 567 563 558 546 534 527 525 526 527 527 525 516 503 493 484 496 508 521 533 541 542 549 558 563 569 569 567 567 562 555 551 548 542 535 527 520 516 514 508 500 492 486 485 483 478 473 472 470 463 456 450 444 442 440 438 435 434 432 427 418 411 403 396 389 381 377 375 379 386 391 396 401 408 417 427 433 436 436 433 428 442 448 470 464 456 457 458 455 451 447 445 441 430 417 410 403 398 392 380 367 356 351 346 342 341 336 334 329 323 313 300 294 295 300 307 315 324 333 341 349 357 365 370 371 371 369 366 360 354 355 357 360 365 369 372 377 385 394 402
717 713 712 711 707 701 695 688 679 672 667 665 663 660 657 656 655 653 654 655 653 650 642 633 629 625 622 619 616 613 611 613 616 615 614 612 611 608 603 596 585 573 563 559 557 556 554 552 549 534 518 509 504 506 508 507 506 499 490 482 477 484 492 500 507 504 506 527 532 542 549 552 553 552 553 549 546 541 535 526 513 505 502 498 492 485 477 471 467 465 463 462 459 453 445 440 436 432 429 426 422 420 417 413 408 403 398 392 387 384 378 373 369 372 374 374 379 384 390 396 403 412 415 418 421 418 417 421 418 421 427 426 427 430 430 430 430 430 421 413 405 400 396 390 381 369 353 341 335 330 327 327 329 329 327 321 313 310 307 310 315 320 327 337 346 352 359 366 373 380 387 387 386 384 382 378 377 377 371 368 370 376 379 382 390 405
